ply
format ascii 1.0
comment Created by CloudCompare v2.11.1 (Anoia)
comment Created 19/12/2023 11:29
obj_info Generated by CloudCompare!
element vertex 1414
property float x
property float y
property float z
property uchar p:label
end_header
0.0066428 0.0367446 -0.0235457 3 
0.0143701 0.0837036 -0.0300031 3 
0.0092836 0.0391276 -0.0232391 3 
-0.0492077 0.0926071 -0.0215852 3 
-0.0752878 0.101061 -0.0116542 3 
0.0243483 0.0823784 0.0486817 3 
-0.0457373 0.0404557 -0.0160655 3 
-0.0140634 0.0621804 0.0538084 3 
-0.0459311 0.0782721 -0.0192756 3 
0.0350179 0.060264 -0.013316 3 
-0.072737 0.115886 -0.00737837 3 
0.0459683 0.0761153 0.0197659 3 
-0.03 0.0952473 0.0449938 3 
-0.0293678 0.098246 -0.0234885 3 
-0.0238181 0.0873994 -0.0369601 3 
0.0395591 0.107718 0.00791374 3 
0.0108659 0.125236 0.0314053 3 
0.0235507 0.0890035 -0.0239312 3 
-0.0688359 0.0871735 0.0430329 3 
0.0165218 0.0915121 0.0502664 3 
0.00755291 0.0691011 0.0554565 3 
0.00387045 0.0744765 -0.034864 3 
0.030719 0.0626744 0.0410809 3 
-0.0417198 0.0898052 -0.0227094 3 
-0.00887563 0.0740017 0.0573213 3 
-0.0198875 0.121561 0.0310806 3 
-0.0640317 0.059239 0.0129788 3 
-0.00189247 0.10628 -0.0221463 3 
0.0131502 0.0488037 0.0465121 3 
0.0149889 0.0992931 0.0474818 3 
0.0199025 0.100427 -0.0219191 3 
-0.0666343 0.101876 -0.0159876 3 
0.0137162 0.0938676 0.0508178 3 
-0.0320152 0.0864439 0.0428039 3 
0.0307253 0.0507665 -0.0115195 3 
-0.0306715 0.0381708 0.00210379 3 
-0.0259546 0.0384075 0.0314053 3 
-0.0640893 0.0396089 0.040236 3 
0.0212537 0.0735177 0.0501663 3 
-0.0380801 0.091606 0.0435353 3 
0.0176255 0.10447 0.044166 3 
-0.0298935 0.118788 -0.0115801 3 
-0.0376961 0.111816 -0.0180966 3 
0.0046752 0.0571053 -0.0309379 3 
-0.00477277 0.0944525 0.0552749 3 
-0.0283059 0.047433 0.0486631 3 
0.00900906 0.0416539 0.045235 3 
0.0204638 0.100189 0.0458311 3 
-0.0225786 0.0794531 0.0550412 3 
-0.0166524 0.124111 -0.00539888 3 
0.00422352 0.0576702 0.0537728 3 
-0.0182896 0.0691995 0.0535714 3 
-0.0320799 0.0384831 -0.00814656 3 
-0.0855197 0.108864 0.00703817 3 
-0.00175165 0.0594157 0.0546818 3 
-0.016107 0.103949 0.0429337 3 
0.0368925 0.0980781 -0.0104965 3 
0.0383921 0.0943511 0.0335423 3 
-0.0267974 0.113469 -0.0163348 3 
0.0420856 0.0923679 -0.00572745 3 
-0.0108963 0.0779809 -0.0380028 3 
0.00331346 0.0371263 0.0461955 3 
0.0441334 0.0954341 0.0174766 3 
-0.0349182 0.0679078 -0.016439 3 
-0.0244601 0.110024 0.0395239 3 
0.0210955 0.109191 0.0389907 3 
-0.0201706 0.117665 0.0354153 3 
0.00765842 0.128759 0.0270124 3 
0.00176854 0.110449 0.042509 3 
-0.0409959 0.0396683 0.0428202 3 
-0.0247434 0.0740437 0.0479487 3 
-0.012235 0.0980255 0.0503921 3 
0.0146947 0.0345273 -0.0127562 3 
-0.00269807 0.121153 0.0369199 3 
-0.0187953 0.10464 -0.0228208 3 
-0.072756 0.0788595 0.0379549 3 
0.0457161 0.0883287 0.0109944 3 
-0.0411991 0.0652587 0.0413978 3 
-0.0256408 0.0381841 0.026439 3 
0.0284213 0.0555165 -0.0189473 3 
-0.0199531 0.0740665 0.0538853 3 
0.031989 0.0474932 0.0318485 3 
0.0329502 0.0657594 0.0400718 3 
-0.0103577 0.036221 0.0498094 3 
-0.023423 0.0797669 0.0545883 3 
-0.0665721 0.0750732 0.0390653 3 
0.00521293 0.0567694 0.0533491 3 
-0.0103304 0.125826 0.0298245 3 
-0.056772 0.0617719 0.0273239 3 
0.0348627 0.0941421 -0.0139644 3 
0.00760099 0.0970409 0.0501767 3 
0.0150306 0.122602 0.0322414 3 
-0.0350972 0.0997158 -0.0224824 3 
0.0377658 0.0963209 0.033172 3 
0.0200514 0.0382946 0.0412868 3 
0.00108417 0.0644547 -0.0343331 3 
-0.0481557 0.0348514 -0.0137634 3 
-0.0105223 0.12601 -0.00585708 3 
0.0169433 0.0524286 0.0468095 3 
-0.0267973 0.121114 -0.00834941 3 
-0.0747976 0.0984715 0.0382345 3 
0.0343413 0.111104 0.0276163 3 
-0.0555183 0.0355776 -0.0112966 3 
-0.0760079 0.101518 -0.0108368 3 
-0.0404015 0.0599236 0.0406617 3 
-0.0648291 0.0718392 0.0376345 3 
-0.0210832 0.0936826 -0.0334051 3 
-0.00748392 0.072155 -0.0367285 3 
-0.031084 0.0974368 0.0445226 3 
0.0332716 0.0909805 0.0413528 3 
-0.0189769 0.0785069 0.056155 3 
-0.0715819 0.0810913 0.0397421 3 
-0.0131131 0.108828 -0.0208934 3 
0.0145186 0.0344429 -0.0108111 3 
0.0371692 0.094945 -0.0108127 3 
0.0070341 0.0346511 0.0413136 3 
0.0095497 0.0487743 0.0494035 3 
-0.0183591 0.0965518 -0.028255 3 
-0.0059859 0.0349284 0.0414003 3 
0.0121275 0.114705 -0.0165597 3 
-0.00339333 0.0997328 -0.0244957 3 
-2.577e-05 0.107923 -0.020992 3 
-0.00882933 0.0875731 -0.0371068 3 
-0.0300516 0.0383386 0.0341964 3 
-0.0688144 0.0855011 0.0428171 3 
-0.0485381 0.0677619 0.0387135 3 
0.00538124 0.0487034 0.0509268 3 
-0.0541501 0.0337021 0.013709 3 
-0.00676931 0.0355696 0.0482897 3 
0.0299824 0.116683 0.0277044 3 
0.00208661 0.0634747 0.0567569 3 
0.0277638 0.10298 -0.0164128 3 
0.0282329 0.0448697 -0.00647753 3 
0.0320709 0.0498152 0.0336704 3 
-0.0131165 0.0347367 0.0451306 3 
-0.0414246 0.0335377 -0.0234623 3 
-0.021761 0.0729807 0.0519992 3 
-0.0304071 0.0667561 0.03887 3 
-0.0118802 0.0389842 0.0340137 3 
-0.0246026 0.0495502 0.0473641 3 
-0.00688367 0.0386554 0.02683 3 
0.0198581 0.0994473 -0.0222084 3 
0.034128 0.0941153 -0.0147561 3 
0.00215461 0.0852847 -0.0345095 3 
-0.0775433 0.0883555 0.0377482 3 
-0.0260643 0.0643443 0.0399759 3 
-0.00504717 0.0393434 0.0365055 3 
-0.0211971 0.0699498 0.0513418 3 
0.0246658 0.106712 0.0390109 3 
-0.0590181 0.0805181 0.0434873 3 
-0.00477595 0.0482642 -0.0303357 3 
0.0232517 0.105479 0.0397993 3 
0.0414983 0.0649035 -0.00391018 3 
0.0244097 0.0579856 -0.0246339 3 
-0.0784803 0.0702826 0.00689755 3 
0.0282624 0.0871561 0.0444374 3 
0.00280516 0.0341419 -0.0179244 3 
0.0280378 0.114474 -0.00770538 3 
-0.0500103 0.0822694 -0.0212729 3 
0.0035856 0.130105 0.0242578 3 
0.0231218 0.0450843 -0.0166347 3 
-0.0341671 0.0711085 0.0414247 3 
0.0150617 0.0351395 0.0412993 3 
-0.0233913 0.0996946 0.0445332 3 
-0.0457507 0.0651145 0.0391233 3 
0.030848 0.0439988 0.0304015 3 
0.0313917 0.113635 0.0294504 3 
-0.0396116 0.0878326 0.0432501 3 
-0.00815876 0.0390375 -0.011911 3 
-0.0308541 0.0803493 -0.0327121 3 
-0.0215836 0.082083 -0.038862 3 
-0.00610233 0.0346988 0.0435176 3 
-0.0297992 0.0621616 0.0377907 3 
-0.00745014 0.128334 0.0268253 3 
0.0238522 0.081323 -0.0252782 3 
-0.0193298 0.0607473 0.0493024 3 
0.00836942 0.0956195 -0.027798 3 
-0.0219257 0.110023 -0.0204676 3 
-0.0339495 0.0384575 -0.00715495 3 
0.0180714 0.071371 -0.0291901 3 
-0.0555498 0.0580615 -0.00448585 3 
-0.0193309 0.0347853 0.0461053 3 
0.0269185 0.0533705 0.0401494 3 
-0.0556782 0.0860726 0.0448981 3 
-0.06656 0.0986764 -0.0163456 3 
0.00894982 0.118836 0.0370212 3 
0.00534966 0.130852 0.00368647 3 
0.00371778 0.126902 0.029944 3 
-0.0157389 0.0369026 0.0515175 3 
0.0108687 0.117401 -0.01564 3 
0.0028409 0.0828203 0.0571898 3 
-0.00602741 0.0383781 0.016771 3 
0.023192 0.115835 0.0341332 3 
0.0435581 0.0886712 0.0253405 3 
0.0239657 0.034822 0.0186712 3 
0.0234368 0.0678333 -0.0257911 3 
-0.0428899 0.0422224 0.04293 3 
-0.0353375 0.116385 -0.0142668 3 
-0.0147019 0.0921696 0.0557336 3 
-0.0355124 0.0661301 -0.0150981 3 
0.0217979 0.0367296 0.0330467 3 
-0.0845313 0.0882552 0.0284111 3 
-0.0566262 0.0346444 0.0441133 3 
0.022839 0.038395 -0.004309 3 
-0.022605 0.0545469 0.0438229 3 
-0.0298687 0.0839255 0.0439861 3 
0.0451711 0.0832963 0.0220667 3 
0.0217224 0.0569913 0.0469234 3 
-0.0504713 0.0863914 -0.0216234 3 
-0.00866546 0.115011 -0.0168678 3 
0.0101638 0.125718 -0.00643338 3 
-0.0733931 0.102108 -0.0126092 3 
0.0289728 0.0674748 0.0423949 3 
-0.0416874 0.118706 -0.01385 3 
0.024892 0.0925858 0.0465223 3 
-0.00214451 0.0770814 -0.0362417 3 
0.00863004 0.0885459 -0.0321682 3 
-0.0132276 0.0388572 0.0325781 3 
-0.0280797 0.0348532 0.0487168 3 
-0.0147435 0.0775762 -0.0384902 3 
-0.0607671 0.105539 -0.0177512 3 
0.0351484 0.079995 0.0395115 3 
0.0383284 0.106431 0.0253053 3 
-0.0454316 0.0336262 -0.0148184 3 
-0.0200797 0.0861638 0.0563277 3 
0.00586151 0.131559 0.00914956 3 
-0.00820254 0.0384141 0.0197815 3 
0.0375044 0.101954 0.030083 3 
0.0153207 0.10263 0.0462762 3 
0.0185573 0.110678 0.0387239 3 
-0.02336 0.103559 0.043229 3 
0.0375286 0.0792558 0.0365034 3 
-0.0199789 0.0381815 0.0216624 3 
0.0432208 0.0730572 0.0269889 3 
0.0310636 0.0805232 -0.0200019 3 
0.0399186 0.0637752 -0.0072064 3 
-0.0105499 0.12884 0.0233697 3 
-0.0456878 0.0336494 -0.015822 3 
-0.0788457 0.0700123 0.0100576 3 
-0.0499106 0.0554257 0.0335626 3 
-0.0313719 0.0335676 -0.0250806 3 
-0.000971512 0.125241 -0.00775007 3 
-0.0759644 0.0866191 0.0387541 3 
-0.0332373 0.0740277 -0.0255994 3 
-0.0169849 0.0567417 0.0507264 3 
0.0145958 0.0501663 0.0464794 3 
-0.0134785 0.073341 -0.0385554 3 
-0.0160028 0.062581 0.0529505 3 
-0.0197025 0.0547733 0.0475613 3 
-0.0103944 0.105622 -0.0228766 3 
0.0372954 0.0829252 0.0365839 3 
0.0386984 0.0646815 0.0340675 3 
0.000478682 0.127118 -0.00489961 3 
-0.0503373 0.0558337 0.0327963 3 
0.0365736 0.089806 -0.0153332 3 
0.0445031 0.0826007 0.0243605 3 
-0.0630841 0.0347766 0.0407843 3 
-0.0386587 0.126971 -0.00215244 3 
-0.0120569 0.0966395 -0.0311511 3 
-0.0428731 0.0390272 -0.024445 3 
-0.0756897 0.0918236 -0.0139961 3 
-0.0883925 0.103042 0.0117579 3 
-0.0398932 0.0347117 0.040527 3 
0.0138215 0.0671753 0.05307 3 
0.0296546 0.103188 -0.0152121 3 
-0.0200946 0.115038 0.037429 3 
0.00552269 0.121739 -0.01281 3 
-0.0453332 0.0860748 0.0440935 3 
-0.012542 0.129636 0.0156868 3 
-0.0375816 0.0725432 0.0420585 3 
-0.0287677 0.0827921 0.0460192 3 
-0.0142598 0.0467387 0.0488488 3 
-0.0680579 0.0847546 0.0430799 3 
-0.0418867 0.0406793 -0.0240318 3 
-0.0801614 0.0805312 0.0323288 3 
-0.0334649 0.091327 -0.024229 3 
-0.0565692 0.0417864 0.0461782 3 
-0.0290246 0.122063 -0.00681615 3 
-0.0305449 0.0722087 -0.0305298 3 
0.0208148 0.0360815 0.0178198 3 
0.0269852 0.115794 -0.00701825 3 
0.044816 0.0932623 0.0155735 3 
0.0429143 0.0930086 -0.00303535 3 
-0.0039682 0.0865073 -0.0367953 3 
-0.0312891 0.126299 0.0108203 3 
-0.0162922 0.0804924 -0.039075 3 
-0.0301027 0.110923 -0.0180544 3 
-0.0619816 0.0883643 -0.0191442 3 
-0.0699723 0.0847216 0.0418454 3 
-0.0660358 0.0868879 0.0443751 3 
0.000934585 0.104367 -0.0220407 3 
-0.0254876 0.0382554 0.00369889 3 
-0.0657402 0.0799605 0.0423117 3 
0.0112402 0.0762726 -0.0314972 3 
0.0176779 0.122845 0.030359 3 
-0.0468008 0.0390317 -0.014762 3 
-0.026691 0.0887977 0.0484261 3 
-0.0272695 0.0769486 0.0457824 3 
-0.0522803 0.0450178 0.043754 3 
0.0197585 0.0480263 -0.0222154 3 
-0.00119246 0.0633304 -0.034388 3 
-0.042328 0.105386 -0.0205762 3 
0.0444859 0.0702629 0.0243194 3 
-0.0198 0.0621012 0.0488485 3 
-0.0812452 0.0899984 0.0332439 3 
-0.00932174 0.127236 0.0280421 3 
-0.0167173 0.0725728 -0.0388479 3 
-0.0264772 0.0530157 0.0387362 3 
-0.0451557 0.0968898 -0.0218404 3 
0.0195025 0.118802 0.0343857 3 
-0.0543333 0.0760348 0.0425591 3 
0.0445934 0.0955377 0.00512189 3 
-0.027486 0.111743 -0.0176472 3 
-0.0340484 0.0660979 0.0404981 3 
-0.0272638 0.0906614 -0.0320447 3 
0.0457569 0.0812867 0.00355713 3 
-0.0364152 0.0419272 -0.0285371 3 
-0.0587484 0.0856281 0.044249 3 
-0.00905458 0.0383847 0.0202053 3 
-0.056435 0.0961995 -0.0212934 3 
0.0201202 0.110587 0.0383153 3 
0.0366278 0.0842639 0.0372423 3 
0.0390633 0.0613719 -0.00737629 3 
-0.0846045 0.0789333 0.0048268 3 
-0.024121 0.0947926 0.0457682 3 
-0.00959615 0.0538171 -0.0335227 3 
-0.00977259 0.130143 0.0159732 3 
-0.0224971 0.118353 0.0335667 3 
0.0443675 0.0857422 -0.00200034 3 
0.0449409 0.0729531 0.0225608 3 
-0.0292858 0.116413 0.0325757 3 
-0.080422 0.0868826 0.0343642 3 
0.0160137 0.0862242 -0.029145 3 
-0.0104926 0.0547418 -0.0337513 3 
0.0204338 0.0365523 0.0371609 3 
0.0106078 0.0637252 -0.0310874 3 
-0.0374273 0.0719703 -0.0173792 3 
-0.0663977 0.0915289 -0.0176833 3 
0.0391129 0.0733843 0.033934 3 
0.0277798 0.0795377 0.0456051 3 
-0.0486054 0.0917746 -0.0216735 3 
-0.0403744 0.0793013 0.0430931 3 
-0.0382553 0.0482494 0.0396967 3 
-0.0634129 0.0447534 0.0344435 3 
0.0267164 0.0634192 -0.0221624 3 
0.0314109 0.0596698 0.040161 3 
-0.0456125 0.104393 0.0413628 3 
-0.074805 0.0694864 0.0259315 3 
-0.0275054 0.0343514 -0.0207995 3 
-0.029215 0.0992954 0.0434588 3 
-0.00153779 0.126788 0.03054 3 
-0.00690087 0.0390678 -0.0109088 3 
-0.00567516 0.0532022 -0.0324219 3 
-0.0428883 0.046533 -0.0121537 3 
0.00439364 0.0851787 -0.03373 3 
0.019052 0.0853059 -0.0274085 3 
0.00832892 0.0348834 -0.0134951 3 
0.00562035 0.0550566 -0.0305262 3 
-0.0190504 0.120983 0.0324462 3 
-0.0445561 0.078556 0.0422368 3 
0.0174796 0.0377484 -0.0183434 3 
-0.00712936 0.100691 0.0461817 3 
-0.0746286 0.106082 -0.00992756 3 
0.0379461 0.0592206 -0.00813748 3 
-0.0252865 0.0773017 0.0502337 3 
-0.0122493 0.0709874 -0.038135 3 
0.0224918 0.0691781 -0.0267743 3 
-0.0594682 0.061173 -0.0025678 3 
0.0211826 0.122844 0.0288901 3 
0.0301167 0.0943671 0.0424089 3 
-0.0264179 0.0712024 -0.03535 3 
-0.00123632 0.0372018 -0.0248976 3 
0.0218759 0.0364875 0.0318009 3 
-0.013173 0.123923 0.0317101 3 
0.0167085 0.123188 -0.00669717 3 
-0.045757 0.03571 0.00810108 3 
0.0403763 0.0727174 0.032161 3 
-0.0124872 0.108807 0.0427256 3 
0.0385513 0.079151 -0.012019 3 
-0.0264871 0.115795 0.0332437 3 
-0.0206552 0.0932253 -0.0341011 3 
-0.0723366 0.111753 -0.00885835 3 
-0.00597549 0.121165 0.0364304 3 
-0.0158859 0.0798918 0.0570069 3 
0.0292592 0.0791408 0.0445202 3 
-0.0381129 0.105516 -0.0202139 3 
-0.0272984 0.117378 -0.0135456 3 
-0.00119767 0.0776516 0.0583982 3 
0.024696 0.0550914 -0.0229293 3 
0.0337811 0.0959722 0.0386646 3 
-0.0637796 0.0737267 0.0395888 3 
-0.0414087 0.116566 0.0326416 3 
0.0360428 0.0662378 -0.0141721 3 
-0.00143755 0.050359 -0.0308063 3 
-0.0314599 0.0646233 -0.0209723 3 
-0.0158737 0.0441038 0.0513663 3 
-0.0553868 0.107622 -0.0183219 3 
0.0394384 0.0985397 0.0291555 3 
-0.00677888 0.0389651 0.0322501 3 
0.00903849 0.0479546 0.0490606 3 
-0.0239285 0.121931 0.0274902 3 
0.0139033 0.11551 -0.0157932 3 
-0.024106 0.0802465 0.0541288 3 
-0.0604172 0.046769 0.0337266 3 
-0.0613471 0.0839449 0.0440566 3 
0.0225925 0.0665107 0.0462586 3 
-0.0791605 0.0906787 0.0356809 3 
-0.0343537 0.0348063 -0.0307728 3 
-0.0657004 0.0599756 0.0106941 3 
-0.0402189 0.0617874 0.0412281 3 
0.0201628 0.0659505 0.0484103 3 
0.0150452 0.109555 0.0401983 3 
-0.0092976 0.130275 0.012795 3 
-0.0283297 0.0360361 -0.0298954 3 
-0.0181898 0.0844721 0.057408 3 
0.0347655 0.0850228 0.039766 3 
0.0450525 0.0811031 0.000641937 3 
-0.000687698 0.113058 -0.019386 3 
-0.028017 0.0807407 -0.0361185 3 
0.0238371 0.0913075 0.0474409 3 
0.0273523 0.117893 -0.0044335 3 
-0.0270149 0.112137 0.0364957 3 
-0.0287647 0.0802018 0.0451358 3 
-0.0564942 0.0985734 0.0431628 3 
0.0292937 0.0977712 0.0415696 3 
0.0300681 0.0466828 0.0338815 3 
-0.0784937 0.0957634 -0.0106756 3 
-0.0562148 0.0485469 0.0356766 3 
-0.0417991 0.0344779 0.0333142 3 
0.0232294 0.0864843 -0.0245828 3 
0.0298768 0.114578 -0.00605115 3 
-0.00540501 0.0893334 0.0569251 3 
0.00132501 0.0479297 -0.0295138 3 
-0.0161975 0.0954758 -0.032025 3 
0.0348207 0.0808805 -0.0174935 3 
-0.00828427 0.0792172 -0.0379393 3 
-0.011467 0.0701514 -0.0377197 3 
-0.0136228 0.0363428 0.0507488 3 
-0.0697839 0.0960106 0.041982 3 
0.0456797 0.0776119 0.00302315 3 
0.00468031 0.0522519 -0.0296728 3 
0.0145905 0.102522 -0.0217535 3 
-0.00502202 0.120159 0.0374485 3 
-0.00423513 0.0358076 -0.0163219 3 
-0.0213798 0.0991797 0.0444793 3 
0.000396926 0.123272 0.0345484 3 
-0.00563886 0.100131 0.048214 3 
-0.0080705 0.0384403 0.0158253 3 
-0.00280241 0.0935186 0.0555738 3 
-0.025745 0.0651939 0.040835 3 
-0.0243648 0.112577 -0.0175448 3 
0.0434474 0.0809422 -0.00357943 3 
0.00208273 0.0684842 -0.0334186 3 
0.0456343 0.0889313 0.0118811 3 
-0.0200306 0.111802 0.0396622 3 
-0.029749 0.045405 0.0496623 3 
-0.0152642 0.0421785 0.0515409 3 
0.0408001 0.0933215 -0.00777562 3 
-0.0303371 0.0386759 -0.0136784 3 
0.00873879 0.0504115 0.0508434 3 
-0.0152154 0.111473 0.0410012 3 
-0.0269617 0.07894 0.0480482 3 
0.0238061 0.0575059 0.044841 3 
-0.0350741 0.0345569 0.038812 3 
-0.0500025 0.0565041 0.0333776 3 
-0.0352938 0.0796597 0.0423465 3 
0.0103747 0.039431 0.0449949 3 
0.000334293 0.0817308 -0.0359491 3 
-0.00906618 0.112243 0.0418374 3 
-0.00179106 0.0932597 0.0556001 3 
-0.0491259 0.117692 0.0317832 3 
-0.0691853 0.107902 -0.0122259 3 
0.0397219 0.0903606 0.0325484 3 
-0.022768 0.059248 0.0438349 3 
0.0111035 0.0404361 -0.0232385 3 
-0.0150897 0.127545 0.00149858 3 
-0.0192861 0.0390529 0.037017 3 
-0.0539763 0.087672 -0.0218911 3 
0.00227393 0.0916676 -0.0332096 3 
-0.0367748 0.116848 -0.0142537 3 
0.00310398 0.102524 0.0439531 3 
-0.0271121 0.0866909 0.0488204 3 
-0.0176694 0.0389656 0.0524394 3 
-0.000752204 0.0826319 -0.0366593 3 
-0.0658657 0.0617451 0.00233326 3 
-0.0500426 0.0892456 -0.0216722 3 
0.00406614 0.0989344 -0.0236404 3 
-0.00684242 0.101872 0.0440458 3 
0.033981 0.0622875 -0.0155226 3 
0.00980713 0.0341451 -0.000400505 3 
-0.0252859 0.0744962 -0.0371551 3 
0.0418729 0.0789884 0.0297754 3 
-0.00635886 0.107582 -0.0226939 3 
0.033252 0.111283 -0.00594946 3 
0.00856133 0.0346154 -0.00467809 3 
-0.0326175 0.0362495 0.0307509 3 
0.0403412 0.071764 0.0320673 3 
0.0300328 0.105345 -0.013804 3 
-0.0338578 0.087787 -0.0247796 3 
-0.00904043 0.070706 -0.0368924 3 
0.00106533 0.0609572 0.0561807 3 
-0.0673193 0.0917347 0.0430898 3 
-0.00183642 0.124003 0.0337386 3 
-0.0258378 0.11882 0.0311855 3 
0.0244506 0.0847832 -0.0245019 3 
-0.0489173 0.102945 -0.0210261 3 
-0.00148592 0.112359 -0.0195044 3 
-0.0476431 0.0587191 0.0365392 3 
-0.0408262 0.108482 -0.0195248 3 
0.0170256 0.0673688 0.0509374 3 
-0.0518059 0.115026 -0.0158781 3 
0.0133597 0.0343284 -0.0113251 3 
0.046102 0.0747227 0.0189031 3 
-0.0379852 0.0351557 0.0425408 3 
-0.077095 0.0847547 0.03735 3 
0.0451619 0.0906442 0.0026072 3 
0.003505 0.0990501 0.0491349 3 
0.0294855 0.0621462 -0.019797 3 
0.00892848 0.115179 -0.0173933 3 
0.00107479 0.0854565 0.0574017 3 
-0.0287703 0.05091 0.0416967 3 
-0.0459012 0.0336476 0.000335289 3 
-0.00442773 0.0774593 -0.0372142 3 
-0.0257059 0.0771863 0.0492785 3 
0.00825845 0.0699256 0.0555101 3 
0.0399216 0.0627416 -0.00622431 3 
-0.0472357 0.109209 -0.0184673 3 
-0.00798842 0.0394486 0.0374961 3 
-0.0408029 0.0894029 -0.0228034 3 
0.0462823 0.0791012 0.0148204 3 
-0.0482709 0.0356828 -0.0130968 3 
0.0267351 0.0485454 -0.0178136 3 
0.0394555 0.0655136 -0.00925149 3 
0.0274726 0.100111 0.0413978 3 
0.0210493 0.120688 -0.00682756 3 
-0.0508695 0.0516002 0.0333846 3 
-0.0280531 0.0887338 -0.0330985 3 
0.00684625 0.095888 -0.0281492 3 
0.0194767 0.113113 0.0371881 3 
0.00419506 0.0671736 -0.0329899 3 
0.000325469 0.0803775 -0.0357313 3 
-0.0426891 0.043687 -0.0196299 3 
0.0265736 0.0938815 0.0450847 3 
0.0231111 0.0493558 -0.0217699 3 
-0.0247315 0.114126 0.0356532 3 
-0.033586 0.0385443 -0.0114275 3 
0.0247972 0.059797 -0.0243935 3 
0.0153397 0.125293 -0.00391168 3 
-0.00398363 0.0386058 -0.0141725 3 
-0.0344262 0.1134 -0.017017 3 
0.00764776 0.061561 0.0548609 3 
-0.0187528 0.0608575 0.0501691 3 
-0.0144328 0.0544501 0.0506768 3 
0.0269245 0.073496 -0.0240171 3 
0.00499496 0.114102 -0.0192872 3 
0.0179874 0.0350438 -0.0106704 3 
-0.00824099 0.107578 0.0437187 3 
-0.0831877 0.0821819 0.028994 3 
-0.0415917 0.11723 -0.0146175 3 
-0.018979 0.0678399 0.0527033 3 
-0.0564428 0.0497232 0.00887868 3 
-0.021019 0.0858268 0.0560263 3 
-0.0221711 0.102499 -0.023723 3 
0.0114066 0.0579058 -0.0297634 3 
-0.0105875 0.129708 0.0189653 3 
0.0168366 0.051483 0.0461436 3 
-0.016603 0.0575601 0.0511836 3 
-0.0587685 0.0899457 -0.0207322 3 
-0.0345476 0.102788 -0.0216899 3 
-0.0800673 0.0721205 0.0184281 3 
-0.0532932 0.0349995 0.0448247 3 
-0.0778292 0.084687 0.0367739 3 
0.0124096 0.0629296 -0.0300949 3 
-0.00871657 0.0991689 -0.0256797 3 
0.00713565 0.0545159 0.0526664 3 
-0.00134072 0.0816388 0.0574445 3 
-0.0295925 0.101687 0.0426196 3 
-0.0387882 0.070271 -0.0165205 3 
-0.020239 0.0351214 0.0513885 3 
0.0447791 0.0946187 0.0048524 3 
0.0320951 0.0572954 0.0389549 3 
0.0233231 0.0724307 -0.0262805 3 
0.00162915 0.0651152 0.0565859 3 
-0.0382055 0.0345481 0.0398945 3 
0.0351009 0.0899662 -0.0166651 3 
-0.0306462 0.108443 0.0387858 3 
0.0103229 0.11534 0.038308 3 
0.026569 0.0835896 -0.0231225 3 
-0.0160146 0.127526 0.0218552 3 
-0.0268673 0.120576 -0.00922741 3 
-0.032017 0.0963157 0.0446451 3 
-0.0816958 0.104971 -0.0039518 3 
-0.0147811 0.0654467 0.0536391 3 
0.00845464 0.115576 0.0387875 3 
-0.00379671 0.0503313 -0.030972 3 
-0.00377524 0.0954851 -0.0324677 3 
0.0192035 0.0718944 -0.0285953 3 
-0.0121245 0.0758234 -0.0383238 3 
0.0281801 0.0369017 0.0231986 3 
0.0458211 0.0891038 0.00810702 3 
-0.0027512 0.0992627 0.0502862 3 
-0.047696 0.043286 -0.0109068 3 
0.047131 0.0739868 0.0154453 3 
0.0209979 0.0351963 0.0265128 3 
-0.0331183 0.0392161 -0.030266 3 
-0.0287569 0.0761815 -0.0349713 3 
-0.0542055 0.0608941 0.0271688 3 
-0.0295607 0.121473 -0.00786422 3 
-0.0337016 0.123946 0.0232434 3 
-0.00788909 0.0387538 -0.0145288 3 
0.00653185 0.0618955 0.0553908 3 
-0.0241739 0.098496 0.0446955 3 
-0.0327825 0.126785 0.0104766 3 
-0.0146422 0.110963 -0.0194185 3 
0.0165503 0.109006 0.0401873 3 
0.0382033 0.0673062 -0.0122594 3 
-0.0679655 0.0606496 0.0118056 3 
0.0191578 0.108753 -0.0164118 3 
0.0234044 0.0390028 0.0364459 3 
0.0219922 0.0713642 0.0490521 3 
0.0341084 0.0852134 0.0406127 3 
-0.0461158 0.0354198 -0.0199057 3 
0.0106222 0.073346 0.0549849 3 
-0.0334488 0.0771271 0.0414331 3 
-0.0508001 0.0544639 0.0320475 3 
-0.013633 0.115664 0.0388262 3 
0.0340067 0.110362 0.0287664 3 
-0.0426919 0.0713224 0.0421514 3 
-0.0081397 0.0600565 0.0553894 3 
-0.0556369 0.0453625 0.0436446 3 
-0.0570527 0.0958175 0.044022 3 
0.017866 0.0467989 0.042767 3 
-0.0533886 0.0380333 0.0470108 3 
-0.0213408 0.0381401 0.0109172 3 
0.0389873 0.0694983 0.0341128 3 
-0.0156973 0.110637 -0.019706 3 
-0.0392516 0.0972971 -0.0222288 3 
-0.0171126 0.0717059 -0.0387011 3 
0.0219897 0.0418499 0.0412074 3 
0.0402904 0.0868855 -0.0114342 3 
-0.0165956 0.108671 0.0417281 3 
-0.037548 0.126429 0.0194391 3 
0.0297037 0.0432156 0.0309619 3 
0.026976 0.114684 -0.00818801 3 
0.0147835 0.129313 0.0153658 3 
0.0448605 0.0746721 0.000778465 3 
-0.0346201 0.0532139 0.0380391 3 
0.00473598 0.129937 0.0246551 3 
-0.00522155 0.113022 0.0415632 3 
-0.0105507 0.0922532 0.0561974 3 
-0.0310244 0.118772 0.0299413 3 
0.0440194 0.0792113 -0.00265334 3 
0.0394869 0.0822268 0.0342537 3 
-0.0159163 0.114164 -0.0175152 3 
-0.0572658 0.0797362 0.0440387 3 
-0.0237935 0.0666597 0.0449468 3 
-0.0701178 0.0946502 -0.01612 3 
0.0049982 0.0389656 -0.0083273 3 
0.0052252 0.0360346 0.0456647 3 
-0.0357329 0.0335668 -0.0240786 3 
-0.0179169 0.0786483 0.0565316 3 
-0.0694458 0.0751405 0.0378203 3 
-0.0062865 0.122256 0.0356195 3 
0.0056646 0.0963417 -0.0282227 3 
0.0115805 0.0344072 -0.0184195 3 
-0.000941352 0.0393194 0.0345947 3 
-0.0756841 0.0751205 -0.00833206 3 
-0.0322606 0.0386622 -0.0303737 3 
0.0255227 0.083567 0.0473543 3 
-0.0384515 0.0372345 -0.00883413 3 
0.0175646 0.111323 -0.0161673 3 
-0.0123247 0.0690887 -0.037724 3 
0.027255 0.0470494 -0.0139821 3 
-0.0629768 0.0610169 0.000217598 3 
0.0373103 0.0891213 -0.0147455 3 
0.0133878 0.116408 0.0368439 3 
-0.0126659 0.122975 0.033176 3 
0.0292235 0.117127 0.0280713 3 
-0.0327183 0.0459194 0.0454866 3 
-0.0360719 0.0336979 0.00854644 3 
-0.0376225 0.0956801 -0.0228827 3 
-0.0438292 0.111445 -0.0173717 3 
0.00327236 0.0675025 0.0559074 3 
0.0197833 0.101422 -0.0214678 3 
0.0268853 0.0837035 0.0464595 3 
0.00434711 0.0966595 -0.0284078 3 
-0.0190853 0.094773 0.0517559 3 
-0.060147 0.0980681 0.0430033 3 
0.0177755 0.0350271 -0.00942663 3 
-0.00841286 0.105961 0.0437649 3 
-0.0610013 0.0412206 0.0437946 3 
-0.00808523 0.123471 -0.0101123 3 
-0.011735 0.0572884 0.0528078 3 
-0.0755351 0.0741407 -0.00781631 3 
0.0338449 0.105081 0.032711 3 
-0.06685 0.0618204 0.00355073 3 
0.0428703 0.0822152 0.02824 3 
0.00707983 0.0392003 0.0326508 3 
0.0129422 0.0347652 0.0402197 3 
-0.0624026 0.119599 -0.00925702 3 
-0.0576624 0.0344145 0.0348156 3 
0.0126946 0.0567374 -0.0294807 3 
-0.0165446 0.122207 -0.00795852 3 
-0.0768526 0.0866166 0.0380908 3 
-0.00303379 0.0468499 0.0484436 3 
0.0325914 0.0517794 0.0345608 3 
0.0147966 0.117897 0.0360563 3 
0.0075179 0.06755 -0.0320294 3 
-0.0408236 0.120439 -0.0126054 3 
0.00536594 0.0371355 -0.0132294 3 
0.0352015 0.0651784 -0.0146472 3 
-0.0338131 0.0937202 0.0444848 3 
-0.0863198 0.0803123 0.0125455 3 
0.0275906 0.0727471 -0.0234741 3 
0.00686943 0.093514 0.0530811 3 
-0.0754962 0.0858186 0.0388471 3 
-0.0553447 0.0482672 0.0388288 3 
0.0448295 0.0763672 0.0234639 3 
-0.0074562 0.0875673 -0.0369295 3 
0.0301929 0.0428541 0.0301347 3 
0.0334165 0.0890965 0.0416937 3 
-0.00671175 0.0627884 -0.035498 3 
0.0439841 0.0795709 0.0257248 3 
-0.00908676 0.0969004 0.0530737 3 
0.0132427 0.0705527 0.0534559 3 
-0.0752281 0.0674769 0.0178386 3 
-0.00924331 0.0813999 -0.0379794 3 
-0.0323724 0.0499926 0.0402344 3 
-0.0311204 0.086434 0.0431604 3 
0.0194301 0.0794842 0.05193 3 
-0.00597447 0.0390436 -0.0105824 3 
0.0246998 0.0488564 0.0390507 3 
0.0402125 0.0727079 -0.00952199 3 
0.00203886 0.0346646 0.0429541 3 
-0.0261079 0.115925 -0.0147449 3 
0.0455532 0.0820423 0.0206327 3 
0.00257373 0.114393 -0.0193627 3 
0.00433025 0.0960406 0.0527118 3 
-0.06676 0.0610013 0.00596348 3 
-0.035872 0.0441396 -0.0272677 3 
-0.0352636 0.10635 -0.0203598 3 
-0.000604622 0.0517116 -0.0307742 3 
-0.0294946 0.122742 0.0224651 3 
-0.0283433 0.0874154 -0.0338295 3 
0.0287553 0.0495667 -0.0158306 3 
-0.0178454 0.0718303 0.054581 3 
-0.00450701 0.06151 0.055576 3 
-0.0394517 0.0737923 0.0422021 3 
-0.0133247 0.127204 0.0255353 3 
0.00758779 0.0376008 -0.0100331 3 
0.0120979 0.0926283 0.0523055 3 
-0.0404293 0.111825 -0.017756 3 
-0.0446585 0.114991 0.0336404 3 
-0.0174876 0.0532802 0.0492705 3 
-0.0341254 0.0965772 -0.023215 3 
0.0158377 0.0694362 0.0521562 3 
0.0328345 0.106738 -0.0104152 3 
0.00748016 0.0507002 0.0514969 3 
0.0256957 0.0492127 0.038682 3 
0.0119137 0.127299 0.028186 3 
0.0016404 0.0946307 -0.031891 3 
-0.0359692 0.0496727 0.0389078 3 
-0.002817 0.038624 0.0240595 3 
-0.0386481 0.0344838 0.0359915 3 
0.0352115 0.0773714 0.0392689 3 
-0.0617138 0.0988522 0.0426672 3 
0.0202642 0.0601464 -0.0267895 3 
0.0159588 0.111707 0.0389037 3 
-0.0211877 0.0383772 -0.00258358 3 
-0.0216594 0.0387996 0.0340272 3 
-0.00385939 0.0905773 -0.0355438 3 
-0.0710836 0.0903817 -0.0162455 3 
-0.0821581 0.0796409 0.0287107 3 
-0.0885554 0.102928 0.0129465 3 
0.00618432 0.107479 -0.0202858 3 
-0.00339464 0.0390234 -0.0129152 3 
-0.0433615 0.111076 0.0371321 3 
-0.00395399 0.0838089 -0.0375688 3 
-0.0677065 0.0875505 0.0436841 3 
-0.0296868 0.0585285 0.0369002 3 
-0.0749809 0.0965113 -0.0135986 3 
-0.0378787 0.0516879 0.0391058 3 
-7.55756e-05 0.100456 0.0471347 3 
-0.0247564 0.103179 -0.0235721 3 
-0.0497608 0.0665651 0.0371753 3 
-0.0445411 0.124928 0.0231597 3 
-0.0644725 0.0671116 0.0329823 3 
-0.069021 0.0889151 0.0427725 3 
-0.0303621 0.0763358 -0.0336044 3 
0.0322542 0.0818591 0.0423374 3 
0.0327883 0.0551145 0.0369159 3 
0.0107637 0.0384065 -0.023007 3 
-0.0181316 0.0652281 -0.037108 3 
0.00292119 0.118976 -0.01526 3 
-0.036332 0.0383299 -0.010118 3 
0.0198234 0.0984318 -0.0224544 3 
0.0270748 0.0799539 0.0461929 3 
0.0133478 0.0415768 0.0447569 3 
0.0358086 0.0666704 0.038051 3 
0.0136409 0.103597 -0.0207244 3 
0.021011 0.0414449 0.0418069 3 
-0.0456063 0.087582 0.0442104 3 
0.00781909 0.0977632 0.0492808 3 
0.00548921 0.0877982 -0.0333723 3 
-0.0121397 0.0441725 0.0499031 3 
-4.22119e-05 0.120404 -0.0129488 3 
-0.0247216 0.0481694 0.0497595 3 
-0.0187252 0.0990116 -0.024307 3 
0.0450089 0.0738688 0.00144704 3 
-0.0249526 0.0467115 0.050889 3 
0.0387674 0.0922435 -0.0109547 3 
-0.069892 0.0730363 0.0362528 3 
-0.0073582 0.121479 -0.0120954 3 
-0.0456393 0.0391504 0.0446042 3 
0.0279204 0.0687587 -0.022323 3 
-0.0640566 0.0600835 0.0181248 3 
-0.0204652 0.0460986 0.0521997 3 
-0.00157861 0.040813 -0.025162 3 
-0.0835107 0.0819192 0.0281527 3 
-0.0186918 0.0814108 0.0574101 3 
0.00989534 0.0664118 -0.0312231 3 
-0.0313146 0.125447 0.00276421 3 
-0.0238026 0.038036 0.0104597 3 
-0.0778784 0.0954294 -0.0114991 3 
-0.0222941 0.100166 0.0443935 3 
-0.0233426 0.0848676 0.0548414 3 
0.0344791 0.10067 0.0350448 3 
-0.00191668 0.0392189 -0.0116334 3 
0.0218131 0.0509105 -0.0237466 3 
-0.0708576 0.0697942 0.0316785 3 
-0.0161627 0.0420741 0.0519012 3 
-0.0821268 0.0756982 0.0183632 3 
0.00729652 0.044686 -0.025073 3 
0.0441147 0.0866631 0.0248319 3 
-0.0322143 0.0850504 -0.0279551 3 
0.0423253 0.0708017 -0.00524974 3 
0.0256619 0.0985729 0.04334 3 
0.0322887 0.0527704 -0.0104578 3 
-0.0290222 0.0956526 0.0449895 3 
0.00658321 0.068376 -0.0324938 3 
-0.0805414 0.0715198 0.0113015 3 
-0.0635531 0.0424619 0.0391529 3 
0.00565998 0.131689 0.011822 3 
-0.0305602 0.0710215 -0.0293169 3 
-0.0249576 0.0937808 0.0460481 3 
-0.0113408 0.0531417 -0.0333645 3 
-0.0291939 0.0380941 0.030183 3 
0.0345993 0.0754047 0.0394933 3 
-0.0368057 0.0658965 -0.0146948 3 
-0.054377 0.102657 0.0418668 3 
-0.0753158 0.0947655 -0.0137323 3 
-0.0809548 0.0770464 -0.00279683 3 
-0.00302879 0.112302 0.0421382 3 
-0.0621046 0.0414613 0.0427348 3 
-0.037032 0.123771 -0.00775436 3 
-0.0212666 0.038135 0.0161479 3 
0.0191085 0.0763997 0.0520546 3 
-0.0830627 0.0783222 0.0015039 3 
-0.0301691 0.125734 0.00716972 3 
0.00442081 0.104263 0.0429317 3 
0.039795 0.0665821 -0.00910231 3 
-0.0656605 0.093706 0.0431961 3 
0.006165 0.0478453 -0.0276964 3 
0.037672 0.092796 0.035414 3 
0.0144893 0.0474936 -0.025123 3 
0.000149816 0.0445188 -0.026018 3 
-0.0112661 0.0801984 0.0578573 3 
0.0249763 0.0368018 0.025628 3 
-0.0188504 0.114862 -0.0172796 3 
-0.0300353 0.125025 0.0183197 3 
-0.025128 0.0364639 -0.0291604 3 
0.0414806 0.0948477 -0.00504283 3 
0.00866096 0.10416 0.0444531 3 
-0.00580152 0.0388971 -0.0139494 3 
-0.00127379 0.0340149 -0.0204224 3 
-0.00449194 0.128657 0.0269637 3 
-0.0322484 0.121825 0.0258824 3 
0.0114113 0.112284 -0.0185063 3 
-0.0238525 0.0715602 -0.0373455 3 
-0.0738063 0.0971358 0.0395801 3 
-0.0127604 0.0865761 -0.0385665 3 
-0.00391516 0.039061 -0.00953971 3 
0.016681 0.088442 0.0506779 3 
-0.0436453 0.116011 0.0328749 3 
-0.0407164 0.114528 -0.0159841 3 
-0.080911 0.076813 0.0255919 3 
-0.0361706 0.0447711 0.0430163 3 
-0.0829716 0.081245 0.0287438 3 
-0.0416299 0.0760034 0.0429922 3 
0.0082877 0.0984193 0.0486217 3 
0.0259961 0.0643347 0.0443548 3 
0.00468501 0.0938624 -0.0317418 3 
0.0171001 0.120376 0.0336588 3 
0.0221272 0.121766 0.0298445 3 
-0.0219312 0.096252 0.0458822 3 
-0.0214361 0.0692231 0.0506102 3 
0.00269627 0.0923301 0.0551628 3 
-0.0269064 0.0401357 0.0539371 3 
-0.0181534 0.116294 -0.0157458 3 
-0.0105122 0.0391794 0.0354566 3 
-0.0246395 0.0925185 0.0483233 3 
-0.0208458 0.0382673 0.00713793 3 
0.0265775 0.0400089 0.03112 3 
-0.00910656 0.0601326 0.055382 3 
-0.0219161 0.0382189 0.00674054 3 
0.00895631 0.0742096 -0.0332743 3 
-0.0133837 0.102961 -0.0237419 3 
0.00211877 0.103178 0.0437293 3 
-0.0396021 0.0337038 -0.0191658 3 
0.0456266 0.0877186 0.0130914 3 
-0.00931269 0.12944 0.00348502 3 
0.017826 0.0406036 -0.0207885 3 
-0.0365706 0.0870175 0.0433065 3 
0.0405786 0.10499 0.00264027 3 
0.0216871 0.125153 0.0029669 3 
-0.0169287 0.0637399 0.0524876 3 
0.0261732 0.0801407 -0.0240041 3 
-0.073465 0.0866973 0.0402879 3 
-0.013185 0.0673081 0.0539223 3 
0.034041 0.0685458 -0.0166942 3 
-0.0778591 0.0900614 0.037349 3 
0.00353681 0.045487 -0.0266354 3 
-0.0152445 0.10483 0.0429223 3 
-0.0716372 0.0970832 -0.0151363 3 
-0.00933038 0.0849157 -0.038101 3 
0.0451419 0.0883424 0.0013724 3 
-0.0774447 0.0718817 0.0254389 3 
-0.0276105 0.125481 0.00565021 3 
0.00237314 0.0612106 0.056333 3 
-0.0319438 0.0979669 -0.0230057 3 
0.0321587 0.0890597 0.0426703 3 
-0.00763222 0.0798404 0.0578171 3 
-0.0842158 0.0783097 0.00422659 3 
0.0181906 0.118671 0.0348339 3 
-0.0249438 0.0380591 0.0240119 3 
-0.0525628 0.101174 -0.0213371 3 
-0.0196505 0.117126 -0.014106 3 
-0.0299399 0.0999179 0.0434116 3 
-0.00483893 0.0900878 -0.0358341 3 
-0.0280801 0.0697647 -0.0328174 3 
-5.24912e-05 0.0390183 0.0467412 3 
-0.0788706 0.101985 -0.0083497 3 
-0.0274549 0.0350083 0.0511393 3 
-0.0291721 0.092742 0.0443549 3 
0.0315653 0.0899285 0.04277 3 
0.00221521 0.098379 0.0507584 3 
0.0026105 0.0594074 0.0552972 3 
-0.0688601 0.103214 -0.0144242 3 
0.00412253 0.0960043 -0.0296177 3 
0.0302248 0.0660965 -0.0193937 3 
-0.0291329 0.103639 0.041777 3 
-0.000301631 0.0602654 -0.0334253 3 
0.0039944 0.123288 -0.0104797 3 
-0.0318488 0.0356562 0.0501963 3 
0.0109715 0.0347182 0.0363714 3 
0.0436536 0.0955142 0.0212203 3 
0.0401069 0.067717 0.0319713 3 
0.00859917 0.0347826 0.0370359 3 
-0.0112965 0.0982589 0.0505264 3 
0.0455071 0.0880519 0.0141115 3 
-0.0285935 0.0999792 0.0432091 3 
0.0367182 0.0611274 -0.0115935 3 
-0.0562309 0.048471 0.0370998 3 
-0.0844053 0.0795571 0.00394741 3 
-0.0407857 0.0485239 0.0398616 3 
-0.0148117 0.105063 -0.0225878 3 
0.000420028 0.0564758 -0.0319891 3 
-0.0600758 0.0606981 -0.00122904 3 
-0.0499673 0.038249 -0.0117652 3 
-0.0304719 0.0345717 -0.0300956 3 
0.00832108 0.085874 0.0559935 3 
-0.0306037 0.0961352 0.0449154 3 
-0.0259255 0.104225 -0.0231729 3 
-0.0652336 0.0334918 0.00358267 3 
-0.0787997 0.0734107 -0.00244 3 
0.0452955 0.0879195 0.0172759 3 
0.0177272 0.0526142 -0.0269455 3 
0.0198098 0.0866542 0.0495892 3 
0.0119887 0.1008 -0.0224581 3 
-0.0579955 0.0413156 0.0459132 3 
-0.00212397 0.0836617 -0.037018 3 
-0.00538723 0.0762369 0.0585076 3 
-0.005879 0.0700458 0.0570299 3 
-0.0508207 0.095379 0.0443074 3 
-0.0425496 0.0431309 -0.0212462 3 
-0.0270439 0.0830235 0.0497304 3 
0.0370621 0.0933954 0.0360626 3 
0.000550833 0.0376717 0.00173905 3 
0.0269027 0.04898 0.0379626 3 
-0.0867396 0.0819767 0.0139636 3 
0.0353941 0.0862531 0.0391934 3 
-0.0747876 0.087868 0.0397356 3 
0.0147937 0.0344414 -0.00967902 3 
0.0198269 0.122596 -0.00495778 3 
-0.0144026 0.128623 0.00546547 3 
0.0368142 0.057643 -0.00872064 3 
0.0214313 0.0487548 0.04096 3 
-0.00985341 0.0348087 0.0438737 3 
0.0242244 0.104658 0.0398516 3 
-0.0801951 0.101905 -0.00698484 3 
-0.0416265 0.0767754 -0.0188424 3 
0.000378249 0.0855157 -0.0354837 3 
-0.00711417 0.0909436 -0.0358638 3 
-0.00769573 0.0920956 -0.0354855 3 
-0.0197647 0.0655864 -0.0368216 3 
-0.0404395 0.104387 -0.0204716 3 
-0.0230679 0.093602 0.0489827 3 
-0.0361678 0.0337075 0.00636464 3 
-0.0783055 0.0797798 0.0337115 3 
-0.0136742 0.0741706 0.056235 3 
-0.0599081 0.0406125 0.0447838 3 
-0.00766964 0.038939 0.0319229 3 
0.0114463 0.0768429 0.054776 3 
0.00812941 0.124187 0.0334284 3 
-0.0618905 0.10237 -0.0183923 3 
0.0395879 0.0919468 -0.0102803 3 
0.032328 0.0827979 0.0421969 3 
0.0171248 0.115655 0.0367054 3 
-0.031601 0.126217 0.0143973 3 
-0.0773989 0.0813981 0.0356511 3 
0.0125803 0.120547 0.0350964 3 
-0.0243202 0.0335336 -0.0257604 3 
-0.0353705 0.0581163 0.0392484 3 
0.0277912 0.0430834 0.0335353 3 
0.0379653 0.10204 -0.00725691 3 
-0.0308586 0.0391583 -0.0301656 3 
-0.0403898 0.0754134 -0.0182725 3 
0.0121218 0.0349108 0.033687 3 
-0.0863202 0.0816865 0.0175875 3 
-0.01364 0.129317 0.0156707 3 
-0.0513977 0.0944638 -0.0218334 3 
-0.00275417 0.087885 0.0568452 3 
-0.0473968 0.110547 -0.0179586 3 
-0.0194349 0.101988 0.0435246 3 
0.0113173 0.0355403 0.0321167 3 
0.00372739 0.0347751 0.0390192 3 
-0.0310231 0.034631 -0.0203297 3 
0.00587586 0.104224 0.0431979 3 
0.0145117 0.0817539 0.0531512 3 
-0.0297471 0.0855189 -0.0325695 3 
-0.0430367 0.0857889 -0.0215171 3 
-0.0310296 0.0734832 0.0403978 3 
-0.0608705 0.0655418 0.0327049 3 
-0.034105 0.0697078 -0.0184207 3 
-0.0673801 0.0338668 0.00937746 3 
-0.0393853 0.122628 0.0270017 3 
-0.0124432 0.0994069 0.0473118 3 
-0.083569 0.108468 0.00167773 3 
-0.0535845 0.0345253 0.0427433 3 
-0.00698481 0.0383539 0.0178016 3 
-0.0790747 0.0816919 0.034281 3 
0.00113517 0.057029 -0.0322125 3 
-0.0309727 0.0379006 0.0311827 3 
0.0336886 0.104956 -0.0110847 3 
-0.0838511 0.0891825 0.0297194 3 
-0.0826403 0.0758997 0.0141081 3 
-0.0791391 0.0722365 0.00276309 3 
-0.00267697 0.0417503 0.0473913 3 
-0.00650375 0.0876083 -0.0367323 3 
-0.0425687 0.0335864 0.00523071 3 
0.0124319 0.0394675 -0.0227701 3 
0.00747564 0.0568801 -0.0306766 3 
0.0276388 0.0645129 0.0435983 3 
0.0371539 0.105598 0.0282507 3 
-0.0382533 0.106725 -0.02008 3 
-0.0676013 0.0614973 0.00523559 3 
-0.015264 0.124996 0.0284037 3 
-0.0408669 0.117882 -0.0140938 3 
-0.0666832 0.0339457 0.0107177 3 
-0.00729634 0.0385634 0.0250525 3 
0.0242986 0.122651 0.0255178 3 
-0.0731593 0.110861 -0.00878505 3 
0.0148354 0.0521037 0.0475573 3 
-0.0719071 0.105707 -0.0117773 3 
-0.0656603 0.0768358 0.0405105 3 
-0.074124 0.0912532 -0.014831 3 
-0.00206827 0.0721354 -0.035552 3 
-0.00676817 0.0383401 0.0158809 3 
0.0250895 0.0782332 0.0482374 3 
0.0189711 0.0372726 -0.0133253 3 
-0.0815255 0.0752542 0.0191841 3 
0.0205343 0.0682884 0.0488638 3 
-0.02258 0.0613829 0.0442788 3 
-0.0127296 0.128651 0.00333914 3 
0.0190724 0.0439385 0.043177 3 
-0.00747992 0.0488527 0.0501849 3 
0.0233088 0.0404624 0.0389751 3 
-0.00421071 0.0518605 0.0532277 3 
0.0119351 0.0541804 -0.0293026 3 
-0.0841476 0.0780758 0.0193006 3 
0.0190931 0.0361169 -0.00873935 3 
-0.0124214 0.051791 0.0508859 3 
0.0321869 0.0976966 0.0391807 3 
-0.0509023 0.0497571 0.0368238 3 
-0.0219073 0.122465 0.0279707 3 
0.0306492 0.0514521 -0.0128559 3 
-0.016622 0.0482767 0.0480976 3 
0.019019 0.124081 -0.00307396 3 
0.00580502 0.0377436 -0.0125091 3 
-0.0737191 0.0726797 0.0326301 3 
-0.0223276 0.0907214 -0.0357964 3 
-0.0408507 0.0335249 -0.0247323 3 
0.00947496 0.115852 0.0382885 3 
-0.0319549 0.0720592 -0.0271613 3 
-0.0125549 0.116 0.0389506 3 
-0.0349074 0.0419001 0.0467707 3 
0.0290402 0.0531112 -0.0180288 3 
-0.030843 0.0473938 0.0452086 3 
-0.0198537 0.0855747 -0.0383294 3 
-0.0348965 0.0336972 0.00754564 3 
-0.0411674 0.0448012 -0.021384 3 
-0.0244763 0.0966631 -0.0248511 3 
-0.0188754 0.0618135 0.050167 3 
0.00865606 0.0535508 0.0522271 3 
-0.0607021 0.111962 -0.015147 3 
0.0165978 0.0749692 -0.0290606 3 
0.00187398 0.0743906 0.0568213 3 
0.0425769 0.0668507 0.0273775 3 
0.0219913 0.0751403 0.0497596 3 
0.0125697 0.110913 -0.0185222 3 
-0.0387252 0.118686 0.0308652 3 
0.00363071 0.125899 -0.00741234 3 
-0.0420162 0.0349458 0.00823342 3 
0.0390892 0.0919523 0.0333743 3 
-0.0415546 0.07901 0.0430351 3 
-0.0802521 0.0718376 0.0174573 3 
0.00311746 0.0819229 0.0569594 3 
-0.0744487 0.103151 -0.0113857 3 
-0.0223027 0.0348105 0.0444538 3 
-0.0331617 0.0824605 0.0418744 3 
0.0149835 0.0981053 0.0477302 3 
-0.0384196 0.0345341 0.0388921 3 
-0.0618959 0.0606807 0.0220056 3 
-0.0234565 0.0350729 0.0517073 3 
0.00153373 0.03506 0.00385391 3 
-0.0327957 0.123971 -0.00380277 3 
-0.0148429 0.121055 0.0344066 3 
-0.00371513 0.128314 -0.0033251 3 
-0.0538531 0.048957 0.0354574 3 
-0.0661253 0.0336714 0.00675497 3 
-0.0259895 0.0337021 -0.0223337 3 
-0.0618502 0.0620182 -0.00346976 3 
0.00104689 0.106241 0.0430053 3 
-0.0378147 0.12612 0.0203126 3 
-0.00152402 0.0931742 -0.033817 3 
0.0176615 0.0592549 0.0489984 3 
-0.0449974 0.123329 0.0248616 3 
-0.00284083 0.10619 -0.0223466 3 
-0.0285764 0.0488253 0.0457649 3 
-0.00925909 0.10955 -0.0217645 3 
-0.0418217 0.045013 -0.018691 3 
-0.0589004 0.0605327 -0.00162762 3 
-0.079572 0.100548 -0.00796702 3 
-0.0325718 0.0678723 -0.0205532 3 
-0.080699 0.0721328 0.00755113 3 
-0.0350189 0.0437523 0.0454672 3 
-0.00300879 0.0386857 -0.0139515 3 
-0.00566407 0.104929 0.044034 3 
-0.00388461 0.0787454 -0.0370766 3 
-0.0246513 0.0383149 -0.00116701 3 
-0.0195069 0.0663977 -0.0372812 3 
-0.0295187 0.0850298 0.0444991 3 
0.0200831 0.116024 0.0356754 3 
0.0184134 0.102536 0.0453487 3 
0.024483 0.0375936 0.0283579 3 
-0.00586282 0.0827184 -0.0377656 3 
-0.00411632 0.0779287 0.0583961 3 
-0.0660281 0.0355818 0.0371717 3 
-0.0658065 0.0396804 0.0334503 3 
0.0349263 0.0575598 0.0362463 3 
-0.0557972 0.0360414 0.0465414 3 
0.0274444 0.0619907 0.0437568 3 
-0.0468065 0.0894244 -0.0220212 3 
-0.039756 0.0462401 -0.0201613 3 
-0.0189481 0.0649278 -0.0367322 3 
-0.0404607 0.046535 -0.0170347 3 
-0.0227981 0.0381148 0.0103858 3 
0.0431631 0.0710144 0.0267077 3 
0.0184339 0.115815 -0.0137338 3 
-0.0645966 0.0648011 0.028923 3 
-0.0532425 0.074686 0.0420676 3 
-0.014595 0.101855 -0.0235608 3 
0.0283048 0.0756195 0.0445326 3 
-0.000771653 0.117438 -0.0163205 3 
-0.0077283 0.129237 0.0243274 3 
-0.0331357 0.0353142 -0.0188398 3 
0.0186083 0.0629891 0.0488036 3 
-0.0180296 0.0954408 -0.0314181 3 
-0.0559857 0.0792028 0.0442143 3 
-0.0262386 0.0383106 -0.00109321 3 
0.0157632 0.0605952 0.0497592 3 
-0.0839457 0.0795776 0.00292768 3 
0.00529412 0.082663 -0.0339792 3 
0.0287427 0.0538642 -0.0187572 3 
0.017893 0.0805279 0.0526249 3 
0.0396991 0.100394 -0.00516641 3 
-0.00698034 0.0954884 0.054566 3 
0.044646 0.0954942 0.01094 3 
0.00596126 0.111581 0.0411739 3 
-0.00020161 0.0570217 0.054644 3 
-0.0141439 0.0839522 -0.0390151 3 
-0.00438943 0.0385646 0.0230484 3 
-0.0760247 0.0700317 0.00112024 3 
-0.0049522 0.106297 0.0440044 3 
-0.033634 0.0346354 0.041739 3 
-0.0706821 0.0812787 0.0403793 3 
-0.0155818 0.125867 -0.00255299 3 
-0.018833 0.0717669 -0.0385611 3 
0.013734 0.0604446 -0.0289994 3 
-0.0226642 0.0948904 0.0474121 3 
-0.00264871 0.101265 0.0441096 3 
-8.74682e-05 0.0519743 0.053819 3 
-0.028357 0.0380272 0.00604023 3 
-0.0256782 0.0881053 0.0505888 3 
-0.00770948 0.124192 0.0332337 3 
-0.0325 0.0436772 0.0489414 3 
0.0447879 0.0915581 0.018392 3 
-0.062355 0.0605107 0.00142877 3 
-0.0184237 0.107371 0.0420652 3 
-0.0615519 0.0973725 0.0430894 3 
0.036586 0.095652 -0.0111763 3 
-0.00865053 0.0347186 0.0437636 3 
-0.0424117 0.0458377 -0.0148451 3 
-0.0471796 0.097558 -0.021943 3 
0.0431524 0.0661276 -0.00098907 3 
-0.0833542 0.079791 0.0236656 3 
-0.0689828 0.0967738 0.041926 3 
-0.0339843 0.0379678 -0.0153567 3 
-0.0878698 0.102535 0.020248 3 
-0.0339029 0.0759611 -0.0254164 3 
-0.0349661 0.0747911 -0.0206355 3 
0.0248704 0.119303 -0.00518571 3 
-0.0510077 0.0378754 -0.011741 3 
0.0202744 0.0809309 0.0511117 3 
0.0238348 0.11796 -0.00807387 3 
-0.00988203 0.0827282 0.0578703 3 
-0.0045434 0.126598 -0.00685574 3 
-0.0221902 0.048078 0.0500935 3 
0.0183216 0.10009 0.0465688 3 
-0.0378008 0.0967498 -0.0225469 3 
-0.0244098 0.0951931 0.0449208 3 
-0.0865735 0.108272 0.015515 3 
-0.0407456 0.114322 0.0344262 3 
0.0373566 0.0696227 0.0360252 3 
0.00490978 0.0953204 -0.030265 3 
-0.00795235 0.126479 0.0296802 3 
-0.00412229 0.0371985 -0.0153983 3 
-0.0277009 0.0519366 0.0393603 3 
0.035269 0.0931599 -0.0143363 3 
0.0127694 0.114494 0.0378957 3 
0.0190678 0.0529726 -0.0268394 3 
0.0215683 0.0366718 -0.00221379 3 
-0.0317262 0.0760895 -0.0311376 3 
0.0347859 0.113313 0.0231097 3 
0.0141619 0.126953 0.0274634 3 
-0.0212273 0.0383053 0.00234365 3 
-0.0651838 0.0834605 0.0439735 3 
-0.0110122 0.127797 -0.00124444 3 
0.0151761 0.123538 0.0311186 3 
-0.0327369 0.0933987 0.0444415 3 
-0.0638241 0.0346361 0.0372187 3 
-0.0246789 0.0996559 0.0444398 3 
-0.0612464 0.0992782 -0.0184475 3 
0.0179622 0.0393253 0.0432455 3 
0.00201778 0.0851197 0.0574016 3 
-0.0660615 0.0609223 0.00515283 3 
0.037898 0.0607472 0.0334769 3 
-0.0886678 0.102751 0.0139857 3 
-0.00319451 0.099275 -0.0255935 3 
-0.0643758 0.0656681 0.0308457 3 
0.00572139 0.0343481 0.000102198 3 
-0.0123447 0.0717305 0.055487 3 
0.0451816 0.0702052 0.00227423 3 
-0.000689835 0.124597 -0.00845878 3 
0.028756 0.114625 0.0316407 3 
-0.0070658 0.122605 0.0351321 3 
-0.0345564 0.034037 -0.0202864 3 
0.0228804 0.0533372 -0.02456 3 
0.0187665 0.0986772 -0.0225952 3 
-0.0489123 0.0662884 0.0375506 3 
-0.0302468 0.056764 0.0367768 3 
0.000742923 0.0616829 -0.0337334 3 
-0.0603373 0.0704588 0.0381219 3 
0.0325805 0.107766 0.0323738 3 
-0.0534819 0.0817443 -0.0214474 3 
-0.0369155 0.0938571 0.0439192 3 
0.0230145 0.0686131 0.046582 3 
0.0328923 0.0557882 -0.0128694 3 
-0.0385483 0.0694411 -0.0160724 3 
-0.0172589 0.121491 0.0325122 3 
-0.00330148 0.0365051 -0.0156924 3 
-0.028548 0.0808887 0.0459749 3 
-0.0387062 0.0747587 0.0421416 3 
-0.0315347 0.0741635 -0.0293349 3 
0.0133719 0.105338 -0.0194078 3 
0.0158127 0.0473631 0.0437363 3 
-0.05943 0.0470826 0.0327439 3 
-0.030302 0.0633663 0.0380935 3 
-0.0866179 0.104821 0.00699306 3 
-0.00958219 0.100009 0.0476984 3 
0.0213711 0.0448387 -0.0189548 3 
0.0188932 0.0876804 -0.0268048 3 
-0.0624706 0.0618092 -0.00280098 3 
0.0382436 0.092397 0.034684 3 
-0.0333199 0.0834123 0.0419522 3 
0.00109617 0.0991739 0.0499894 3 
0.0304413 0.0454757 0.0320369 3 
0.00250768 0.0658578 0.0563685 3 
0.0111456 0.0536735 -0.0294264 3 
-0.0790436 0.0997266 -0.0086557 3 
0.0245273 0.114814 -0.0105848 3 
-0.0590657 0.0415936 0.0449936 3 
-0.0790083 0.0772047 0.0302207 3 
0.0168569 0.123829 -0.00562605 3 
-0.0425933 0.0336956 -0.015215 3 
0.0261006 0.118929 -0.00437395 3 
-0.0257497 0.0383582 -0.00575929 3 
0.0407906 0.104968 0.00355466 3 
0.00279561 0.110561 0.0423495 3 
-0.0293472 0.125038 0.00263447 3 
-0.0355209 0.0592468 0.0396471 3 
-0.040641 0.0513812 0.0393954 3 
-0.0660748 0.0344463 0.0140213 3 
-0.0387621 0.036248 -0.0105616 3 
-0.0567701 0.0941958 0.0448665 3 
-0.0180249 0.0803898 0.0573002 3 
-0.0844552 0.0871079 0.0281072 3 
-0.0436814 0.102549 -0.0213238 3 
0.0194281 0.0353379 -0.00529984 3 
-0.017522 0.0666953 -0.0378703 3 
0.0115394 0.0355907 -0.0216039 3 
-0.046276 0.0432381 0.0434123 3 
0.0455221 0.0743477 0.0211496 3 
-0.00931459 0.0982467 -0.0279715 3 
-0.00339585 0.0451711 0.0469599 3 
-0.0255599 0.0914997 -0.0330475 3 
0.0181469 0.0502915 0.0445528 3 
-0.0487114 0.0335176 0.00432204 3 
-0.0633633 0.110121 -0.0146234 3 
0.0131723 0.0977057 0.0483292 3 
-0.000612353 0.0454056 -0.0271313 3 
0.0236999 0.118782 -0.00715744 3 
0.000131614 0.0390163 -0.00272643 3 
0.00433288 0.107641 -0.0202747 3 
-0.0291937 0.0357252 -0.0300544 3 
0.0142532 0.0395762 0.0444111 3 
-0.0459307 0.0559369 0.038076 3 
-0.0479481 0.0345808 -0.0148165 3 
0.0187579 0.04229 -0.0214565 3 
-0.0345091 0.0380025 -0.0302482 3 
-0.0231665 0.0360057 0.0534519 3 
0.00194813 0.0579199 -0.0323601 3 
-0.0282692 0.111304 -0.0179379 3 
0.000875296 0.102088 0.0442562 3 
-0.00330574 0.0390858 -0.00633204 3 
-0.0357386 0.034523 0.0338965 3 
0.0227978 0.0987936 0.0454202 3 
-0.0117629 0.0392352 0.0370824 3 
-0.0636983 0.0761734 0.0410847 3 
-0.0809366 0.0748436 0.00136949 3 
-0.0579934 0.0927236 -0.020991 3 
-0.0301933 0.0677998 -0.0277063 3 
-0.0231565 0.0383146 -0.00164919 3 
-0.069233 0.0879023 -0.0170109 3 
-0.0447962 0.0336789 0.00111285 3 
0.0456416 0.0906467 0.00646309 3 
-0.0481674 0.0686229 0.039389 3 
-0.00862854 0.0806712 0.0580033 3 
0.0258011 0.087253 0.0470272 3 
0.012048 0.0892078 0.053919 3 
-0.0301511 0.0474507 0.0459792 3 
-0.0198226 0.0422845 0.0531313 3 
0.00390611 0.0831472 -0.0342581 3 
-0.00868679 0.0629521 0.0560012 3 
-0.00143289 0.119878 0.0379946 3 
-0.0330317 0.126824 0.00854555 3 
-0.0126251 0.0373974 0.0506166 3 
0.0367476 0.10156 -0.00953307 3 
0.0301977 0.0867053 -0.0203147 3 
-0.0826895 0.0788591 0.000355221 3 
0.0411477 0.0901281 -0.00946008 3 
-0.0304475 0.0418284 0.0512128 3 
-0.0371078 0.0738277 -0.0180902 3 
0.0387547 0.0964698 -0.00820538 3 
-0.0786769 0.069563 0.0147426 3 
0.0247177 0.0434517 0.0390069 3 
0.024279 0.0381703 0.031423 3 
0.0226751 0.100432 -0.0205703 3 
-0.0292786 0.0347173 0.0429707 3 
0.00868767 0.124805 -0.00817743 3 
0.0160155 0.0355588 0.0416122 3 
-0.0336822 0.0813541 0.0419533 3 
-0.0157952 0.109716 -0.0200878 3 
-0.0236339 0.0571372 0.0424486 3 
0.0454621 0.0861339 0.0178252 3 
-0.000189251 0.0377266 -0.0146512 3 
0.0323936 0.052141 -0.00938634 3 
-0.0368925 0.101793 -0.0216001 3 
-0.013229 0.128835 0.0198894 3 
0.024231 0.0604155 0.0452401 3 
0.0459517 0.0810075 0.0177928 3 
0.040186 0.0939716 0.030402 3 
0.0369509 0.0589753 0.0339724 3 
-0.0020869 0.0434987 -0.0254204 3 
0.0156747 0.073187 -0.0299453 3 
-0.0447525 0.11179 0.0364608 3 
0.0258084 0.0697582 0.0441103 3 
-0.0543219 0.104947 -0.0190423 3 
-0.0435117 0.0346521 0.0405352 3 
-0.0637735 0.0615638 -0.000727751 3 
-0.0266544 0.085333 -0.0364222 3 
-0.0513952 0.0710382 0.0393224 3 
0.0169723 0.0780373 -0.0289037 3 
0.0291952 0.104129 -0.0149821 3 
