ply
format ascii 1.0
comment Created by CloudCompare v2.11.1 (Anoia)
comment Created 21/12/2023 13:08
obj_info Generated by CloudCompare!
element vertex 1839
property float x
property float y
property float z
property uchar p:label
end_header
4.54883 15.4139 -0.575138 1 
3.65389 17.554 -0.530299 1 
1.3896 14.882 0 1 
4.46679 14.0409 0 1 
3.22562 15.9636 -0.792208 1 
1.27166 13.9935 -0.753184 1 
3.06358 14.044 -1.27435 1 
3.2514 16.2197 -0.765567 1 
1.37516 12.8896 -0.774476 1 
2.62294 13.9702 0 1 
4.71247 15.4423 0 1 
2.16077 12.741 -1.22706 1 
4.8279 14.8333 -0.672328 1 
1.32263 13.6644 -1.85761 1 
3.10835 16.8672 -0.651398 1 
3.40689 14.2526 -0.909132 1 
1.88627 16.2937 -0.192257 1 
4.09655 17.5559 -0.529971 1 
3.07811 15.5184 -0.877096 1 
0.298309 15.3498 -1.61886 1 
3.49282 14.1774 0 1 
4.48082 17.4546 0 1 
1.52512 15.9473 -0.479154 1 
4.77736 13.6989 0 1 
1.58035 15.591 -1.00726 1 
0 15.3984 -0.312133 1 
3.56076 17.3894 -0.559313 1 
1.3285 13.402 -0.472974 1 
2.61826 16.039 -0.797431 1 
2.8365 17.1671 -0.598515 1 
3.28733 14.5877 -1.99783 1 
0 15.2551 -0.0188678 1 
2.82272 15.5976 -0.999646 1 
1.16432 14.2149 -0.722278 1 
7.96523e-07 15.3305 -1.41225 1 
1.09829 14.2213 -1.70265 1 
4.3694 17.7349 -0.498393 1 
1.30399 13.9002 -0.158487 1 
4.12582 17.7734 -0.426971 1 
3.98939 15.8772 -0.347331 1 
4.7435 17.6994 0 1 
4.67834 17.7172 0 1 
2.4279 12.9519 -1.65558 1 
4.8279 16.6834 -0.074327 1 
1.3231 13.7813 -0.395744 1 
1.41884 12.9864 0 1 
4.33169 17.4909 -0.53783 1 
4.8279 17.1136 -0.171551 1 
2.47922 13.3524 -1.21644 1 
1.3285 13.5132 -0.270836 1 
3.58871 14.4838 -1.46143 1 
2.85491 17.2336 -0.499172 1 
4.5685 14.3773 -0.393982 1 
2.96314 14.9724 0 1 
3.49156 15.8553 0 1 
0.0722504 15.4277 -0.517093 1 
1.0911 15.6604 -0.889731 1 
3.84782 16.9887 0 1 
4.8279 16.9656 -0.184945 1 
1.42567 15.8618 -0.788187 1 
4.01086 13.9623 -0.470635 1 
4.78476 15.6767 -0.16911 1 
1.31716 14.1262 0 1 
2.65429 15.3938 -1.33173 1 
1.61965 13.4188 0 1 
0.643404 15.3604 -1.51482 1 
2.46506 15.2589 0 1 
0 15.2643 -1.1919 1 
3.49469 17.0487 0 1 
3.63568 13.8068 0 1 
2.53949 14.016 0 1 
1.60204 16.0158 -0.118707 1 
4.54444 14.8368 -0.974639 1 
4.58706 16.2504 -0.281481 1 
3.54377 14.8659 -1.58369 1 
0.950313 14.4098 -1.28801 1 
4.35994 17.3429 -0.506152 1 
3.91132 13.5992 -0.451743 1 
0.57849 14.5987 -1.24824 1 
2.39187 16.8543 -0.533394 1 
3.65123 17.6136 0 1 
4.63893 15.0829 -1.00424 1 
2.34491 15.3131 -1.93591 1 
2.398 12.9314 -0.402269 1 
1.32649 13.6856 -1.05069 1 
1.64686 16.0499 -0.379037 1 
4.21019 17.3738 -0.544708 1 
4.46151 15.879 0 1 
3.6896 14.0962 -0.663943 1 
1.75886 15.2885 0 1 
2.45101 13.3828 -0.729665 1 
2.81948 13.4377 -0.824123 1 
4.59988 17.1581 0 1 
4.07032 14.4558 0 1 
0.0642734 14.6544 -0.947823 1 
3.01391 13.4789 -0.559913 1 
2.26704 12.8082 -0.491041 1 
3.93677 17.1533 -0.592066 1 
1.4968 12.7402 -1.39508 1 
0.00611973 15.0812 0 1 
4.42076 15.6337 -0.22338 1 
4.80239 14.719 -0.929127 1 
2.886 13.4307 -1.0613 1 
0.981463 14.4144 -0.878699 1 
4.8279 15.4639 -0.223326 1 
1.53696 13.1849 0 1 
2.4279 13.0436 -0.691134 1 
2.92443 13.5037 -1.42197 1 
2.95626 16.5885 0 1 
4.8279 16.9887 -0.189004 1 
0.555116 15.4271 -1.24087 1 
3.81554 17.0549 0 1 
3.01492 14.15 -1.36992 1 
3.8364 15.0831 0 1 
2.42678 13.0147 -0.879643 1 
0.962212 15.6209 -0.462732 1 
3.89088 13.9501 -0.523362 1 
2.48525 15.6791 -0.934491 1 
3.22288 15.8094 0 1 
1.82512 12.7843 -0.630723 1 
3.22598 16.171 -0.774151 1 
3.65997 14.4663 -1.37979 1 
3.2109 16.3091 0 1 
1.3285 13.0186 -1.09061 1 
1.76717 13.8937 0 1 
4.33505 13.8424 0 1 
1.3285 13.3097 -1.92264 1 
4.6232 15.2468 -0.632581 1 
4.18073 17.0447 -0.494307 1 
2.86267 16.2703 0 1 
3.56149 14.6016 -1.51423 1 
1.92257 12.7104 -1.5114 1 
4.2198 14.357 -0.983612 1 
3.85766 15.5478 -0.710794 1 
3.95921 15.2106 -0.837694 1 
1.21647 14.143 -0.124247 1 
1.42602 14.5858 0 1 
3.13447 14.2377 -1.60453 1 
2.4279 13.3412 -0.222843 1 
3.10809 17.398 -0.039144 1 
1.3285 13.1667 -1.51475 1 
1.12288 14.1906 -1.68651 1 
1.48545 14.9949 0 1 
4.8279 17.6906 -0.35122 1 
3.48023 15.0907 0 1 
1.01415 14.3962 -0.664147 1 
0.118264 15.3967 -1.12911 1 
0 15.005 -1.54364 1 
2.862 14.2175 -1.71936 1 
4.11413 17.2597 0 1 
2.11917 12.7866 -0.584802 1 
3.6172 15.8435 0 1 
2.2177 12.7688 -0.998495 1 
4.0135 14.6006 0 1 
3.39935 13.6536 -0.810181 1 
1.42499 13.1873 0 1 
3.94437 15.3334 -0.736822 1 
2.98145 15.9972 -0.804791 1 
2.65329 16.095 -0.787559 1 
0.335683 14.7936 0 1 
3.62945 13.9928 0 1 
1.57726 15.4457 -1.20145 1 
1.31524 13.7919 -1.15287 1 
4.39746 14.2986 -0.408738 1 
1.44601 12.8428 -0.127256 1 
3.89225 14.3946 -0.714927 1 
3.89541 14.1429 -0.555196 1 
3.65332 13.6397 -0.607452 1 
4.74309 17.8486 -0.0312938 1 
3.20276 14.2135 -1.74201 1 
1.58725 13.6281 0 1 
2.79038 13.4572 -0.180878 1 
2.2863 12.7489 -1.41805 1 
3.13794 14.7098 0 1 
1.3285 13.3577 -1.41028 1 
4.28066 16.5647 0 1 
1.94419 13.0226 0 1 
0 14.9693 -0.850818 1 
1.32891 14.6616 0 1 
0.426421 15.4309 -1.12486 1 
4.29765 14.775 -1.028 1 
2.0738 15.3236 -1.85112 1 
4.54292 15.2336 0 1 
1.69966 16.0868 -0.696024 1 
3.48961 14.2359 -0.834626 1 
3.94068 16.0001 -0.386837 1 
4.13305 16.6812 0 1 
1.3285 13.0583 -1.74207 1 
1.16182 14.7456 0 1 
2.86592 17.1235 0 1 
2.09373 16.0677 0 1 
3.92842 15.5674 -0.599891 1 
1.42612 15.4836 0 1 
1.3285 13.2835 -1.72291 1 
1.3285 13.422 -0.885502 1 
1.76617 12.7735 -0.822439 1 
2.46309 13.3645 -1.0387 1 
4.42396 15.3197 0 1 
4.8279 15.7999 -0.13216 1 
2.1694 14.4652 0 1 
4.59433 16.467 -0.318927 1 
2.9416 15.105 0 1 
4.8279 16.6995 -0.0702548 1 
4.8279 14.2425 -0.147992 1 
1.45775 15.8998 -0.386349 1 
0 15.093 -0.405232 1 
0.521618 14.6266 -1.07365 1 
1.49031 12.7491 -1.3244 1 
4.57214 17.6195 -0.518741 1 
0.724692 14.5933 -0.515439 1 
3.41889 14.2415 -1.58276 1 
1.3285 13.244 -0.449017 1 
4.552 14.8466 0 1 
4.36213 14.2639 0 1 
0.91016 14.4364 -1.32541 1 
4.36519 17.6594 0 1 
2.94962 13.7353 -1.41398 1 
2.69811 13.4071 -0.997395 1 
2.60241 13.2762 -2.01776 1 
2.81662 15.8256 -0.854261 1 
3.22993 14.2925 -1.09864 1 
3.3414 15.8996 0 1 
3.43422 15.8692 0 1 
2.4279 13.0449 -1.39246 1 
3.09381 13.8401 0 1 
2.13651 16.5806 -0.485396 1 
4.8279 14.6549 -0.816297 1 
2.86023 16.7739 -0.667848 1 
0 14.7211 -0.339344 1 
2.12003 12.6788 -1.75704 1 
2.41203 12.9674 -0.33835 1 
3.55361 15.1322 -1.28258 1 
2.19444 12.796 -0.42906 1 
2.70265 13.2778 -2.11329 1 
2.69934 13.4384 -0.404297 1 
3.73524 14.0384 0 1 
3.02652 16.7382 -0.674144 1 
4.32114 17.7761 -0.491144 1 
2.4279 13.049 -0.636603 1 
1.3285 13.2499 -1.00468 1 
3.70886 14.3303 -1.07909 1 
3.53084 16.6849 0 1 
2.06443 14.0751 0 1 
0.368647 15.3019 0 1 
0.946827 15.4664 -1.1635 1 
1.5301 12.6874 -1.76589 1 
3.19816 13.7421 -1.03866 1 
4.07358 17.2782 0 1 
4.8279 16.6618 -0.266231 1 
3.89396 14.2123 0 1 
2.66092 13.9487 0 1 
1.32665 13.7197 -0.289893 1 
4.8279 15.4287 -0.0899982 1 
1.21977 15.7479 -0.408185 1 
3.21561 14.1013 -1.08163 1 
4.55856 15.7508 -0.19606 1 
2.38697 15.2881 0 1 
2.88182 16.1949 -0.769949 1 
3.37255 17.5328 -0.000679536 1 
4.8279 15.3396 -0.0389561 1 
3.23096 16.3049 0 1 
1.3285 13.273 -1.08858 1 
1.16105 14.2231 -0.665345 1 
1.19775 14.0882 -1.58832 1 
2.68189 17.035 -0.621811 1 
3.46423 14.5805 -1.6435 1 
2.3876 12.9054 -0.658622 1 
0.677505 15.3719 -1.42727 1 
4.67857 15.2408 -0.666506 1 
2.61596 17.053 -0.562396 1 
1.37297 15.8461 -0.062295 1 
1.52405 12.7914 -0.705352 1 
4.47922 15.9819 0 1 
3.88567 16.6578 -0.524214 1 
4.01726 14.467 0 1 
4.00924 14.4841 0 1 
3.29788 13.5527 0 1 
1.51819 12.8082 -0.31349 1 
1.05355 15.668 -0.0952985 1 
3.96802 14.6524 0 1 
1.66786 16.0337 0 1 
2.82971 16.6809 -0.68425 1 
0 14.8541 -0.501887 1 
1.45523 13.6815 0 1 
0.875597 15.1425 0 1 
4.8279 14.3592 -0.279578 1 
2.06118 12.6537 -1.92973 1 
4.5787 17.2749 0 1 
3.18349 17.4388 -0.128696 1 
4.12369 17.522 -0.535934 1 
0 14.9742 -0.776594 1 
4.59981 14.3051 -0.377559 1 
1.32479 15.3857 0 1 
2.4279 13.1916 -0.129905 1 
2.7829 13.4611 0 1 
1.23956 14.0508 -1.1116 1 
2.24061 13.7412 0 1 
2.65301 17.091 -0.174549 1 
4.10074 16.4936 -0.41963 1 
4.8279 14.7605 -0.143451 1 
4.8279 15.0899 -0.435677 1 
4.81488 17.8488 -0.196695 1 
1.63828 15.4398 0 1 
0 15.1962 -1.26101 1 
4.39454 17.8226 -0.119826 1 
1.36069 12.9279 -0.414324 1 
1.30038 15.3638 -1.48111 1 
3.32945 14.3417 -1.01483 1 
2.46078 15.9992 0 1 
4.1136 16.8362 -0.476223 1 
1.28256 13.9557 -0.876526 1 
4.30436 17.41 0 1 
2.77931 14.4307 0 1 
4.40985 14.7593 0 1 
0 15.1878 -0.573924 1 
4.5099 17.5436 -0.517845 1 
1.3285 13.2077 -1.0263 1 
4.46828 14.6208 0 1 
0.507396 14.6566 -0.580077 1 
1.35291 12.9011 -1.08096 1 
4.4238 15.6842 0 1 
1.57442 15.7425 -0.894374 1 
2.48962 13.3971 -0.574565 1 
4.21438 14.6762 -1.0422 1 
2.85475 14.1581 -1.69651 1 
3.06499 14.3239 0 1 
1.40443 15.3344 -1.75888 1 
2.99635 14.1616 -2.03591 1 
0 14.7228 -0.517402 1 
2.81132 14.0613 -1.79937 1 
4.02282 16.8066 -0.499802 1 
1.3285 13.1926 -1.59155 1 
0.207964 14.597 -1.60482 1 
4.8279 15.8881 -0.0387165 1 
0 14.7675 -1.46753 1 
4.49294 15.5468 -0.606939 1 
3.05352 16.5686 -0.704046 1 
3.83861 15.1883 -0.96418 1 
1.23079 14.1012 -0.581779 1 
0.389827 15.4569 -0.518372 1 
4.71396 15.4111 0 1 
4.18986 14.4277 -0.526976 1 
1.84407 12.7994 -0.110651 1 
1.45853 14.1799 0 1 
4.27712 14.207 -0.421556 1 
4.48041 14.3949 -0.71314 1 
2.33762 13.4312 0 1 
3.64277 13.5816 0 1 
3.97485 14.5417 -1.14031 1 
2.84666 17.022 0 1 
4.8279 17.2531 -0.40789 1 
0 15.0541 -0.849695 1 
2.4279 13.1255 -2.02069 1 
2.48056 16.2571 -0.758965 1 
2.76315 15.8468 -0.845822 1 
4.52565 13.6078 -0.13183 1 
0 15.3206 -0.337075 1 
0.0176602 14.6224 -1.3536 1 
4.69529 13.6093 -0.224208 1 
1.30418 13.8953 -0.37463 1 
9.01948e-07 15.3287 -1.39466 1 
3.72092 14.3357 -1.0488 1 
1.85757 15.9458 0 1 
3.62118 14.3802 -0.796189 1 
2.41233 16.8753 -0.500747 1 
0 15.1758 -0.499858 1 
1.18879 14.0958 -1.65286 1 
4.8279 14.4881 -0.696938 1 
0 14.6782 -0.5197 1 
0.784841 14.8268 0 1 
0 14.8237 -0.383404 1 
3.80932 14.9942 -1.33711 1 
0.0811386 14.6407 -1.13956 1 
3.21314 13.501 -0.627041 1 
0.0179762 15.431 -0.365405 1 
0.737548 14.4834 -1.81162 1 
1.3285 13.6286 -0.982786 1 
4.56333 15.5207 0 1 
4.63069 14.4115 -0.618759 1 
1.5723 15.7976 0 1 
4.59815 15.58 -0.527735 1 
3.33832 14.2388 -1.81139 1 
0.882924 14.5136 -0.318566 1 
1.68967 12.7979 -0.228038 1 
2.66227 13.5831 0 1 
0.525786 14.6561 -0.513571 1 
3.39874 15.0983 -1.47505 1 
3.68565 14.3257 0 1 
2.06771 12.6767 -1.77212 1 
0.67161 15.251 0 1 
0.0602337 14.6812 -0.329994 1 
2.13143 14.416 0 1 
3.41375 13.7776 -0.819313 1 
2.46185 16.7236 -0.676715 1 
2.4279 13.2007 -2.00847 1 
4.37651 17.4051 0 1 
2.44868 14.7382 0 1 
2.86367 15.8675 -0.837996 1 
1.4234 12.741 -1.73588 1 
1.38465 15.7788 -0.874963 1 
3.81505 17.1225 -0.606386 1 
0.917735 15.5459 -1.0537 1 
1.38344 14.8577 0 1 
1.26711 15.7642 -0.711602 1 
2.40614 12.9474 -0.234635 1 
1.68003 15.9501 -0.815637 1 
4.60996 15.6208 -0.296669 1 
3.44131 13.9383 0 1 
2.4279 13.1642 -1.83808 1 
3.27099 14.2446 -1.98366 1 
1.3285 13.3281 -0.762301 1 
1.99492 15.9902 0 1 
4.38438 14.0119 -0.360997 1 
3.24611 14.5537 -2.12103 1 
2.4279 13.0447 -1.2671 1 
4.67306 14.6784 -0.928903 1 
1.34235 12.9438 -0.972074 1 
1.53457 15.3259 -1.83198 1 
4.38389 13.6709 0 1 
2.11688 16.5508 -0.677286 1 
0 14.7889 -1.4298 1 
0 15.3079 -1.58448 1 
2.68819 16.6169 0 1 
0.694858 14.8484 0 1 
1.33308 13.0029 -0.790743 1 
1.3285 13.497 -1.58961 1 
2.4279 13.0117 -1.02545 1 
2.51171 16.9668 -0.479014 1 
3.6448 15.3547 -0.910771 1 
2.57581 17.0242 -0.396907 1 
3.50069 14.5044 -1.57735 1 
2.31166 12.8112 -0.921944 1 
2.88627 14.2125 -1.74747 1 
0 14.9377 -1.21282 1 
4.51232 16.9246 -0.40837 1 
0.251461 15.3701 -1.43318 1 
2.52606 15.7217 -0.905878 1 
2.83616 16.2864 0 1 
1.80536 13.4258 0 1 
2.37047 12.8555 -1.03286 1 
1.44516 13.8637 0 1 
3.58696 14.5099 -1.46808 1 
3.98927 14.7208 -1.1633 1 
3.09597 15.4762 -1.11655 1 
0.992199 14.7164 0 1 
4.07745 16.6562 0 1 
1.78212 14.7814 0 1 
0.336697 15.4044 -1.28798 1 
2.79505 15.3392 -1.71684 1 
3.45767 16.8058 -0.662216 1 
3.95085 15.532 0 1 
0.93815 14.435 -1.09324 1 
0.881981 15.5955 -0.139459 1 
1.71342 13.1653 0 1 
2.92906 16.8281 0 1 
4.79286 16.4919 -0.312742 1 
3.0059 16.9439 -0.63788 1 
2.47814 16.5236 -0.71199 1 
0.990271 14.3442 -1.60003 1 
2.73055 17.1515 -0.0871911 1 
4.06974 17.6244 0 1 
4.80982 15.4985 -0.571405 1 
1.01159 14.973 0 1 
1.80246 14.8403 0 1 
4.54799 16.2108 0 1 
1.35592 12.8567 -1.48129 1 
2.5698 17.0223 -0.238778 1 
2.37908 14.0429 0 1 
0.376084 14.6372 -1.15323 1 
2.15586 12.7538 -1.08594 1 
3.03761 15.2689 -1.52307 1 
2.39489 14.5871 0 1 
2.34538 15.3283 -1.81183 1 
1.89359 16.062 -0.793371 1 
3.12261 16.5329 -0.710334 1 
0.516654 15.3666 0 1 
2.15962 15.9138 0 1 
0.959095 15.6267 -0.0128068 1 
0.835971 15.5565 -0.843234 1 
3.15462 13.784 -1.10129 1 
4.06712 14.6615 0 1 
3.00465 15.1433 0 1 
1.96473 16.3726 -0.666668 1 
3.86992 14.0889 -0.558456 1 
0 14.7049 -1.00054 1 
2.95829 15.0619 -1.68119 1 
0.813831 15.5689 -0.280093 1 
1.3285 13.2885 -1.3493 1 
0 14.7333 -0.942342 1 
3.64415 16.2502 0 1 
2.00955 14.1377 0 1 
1.3285 13.2047 -0.849579 1 
3.46326 17.5013 0 1 
3.48049 14.255 -1.50616 1 
0.760834 14.5397 -1.1526 1 
1.88032 15.1333 0 1 
1.27077 15.7806 -0.23186 1 
3.90038 14.1941 -0.56185 1 
1.19322 15.3699 0 1 
1.34566 12.9567 -0.42214 1 
3.74151 15.8243 -0.440542 1 
0.25614 14.6541 -0.951492 1 
3.70505 17.0495 0 1 
3.46279 16.7301 0 1 
4.5394 14.159 0 1 
4.78811 15.1877 -0.967897 1 
3.25405 14.8254 -2.14139 1 
0.131202 14.6662 -0.742678 1 
2.77891 15.4056 -1.29159 1 
4.23028 13.6037 -0.328368 1 
4.03404 13.7774 0 1 
3.15557 14.8386 0 1 
2.71855 13.5063 0 1 
3.21287 15.9924 -0.805641 1 
3.42112 14.1351 -0.875839 1 
1.62733 16.0366 -0.144992 1 
3.75528 17.5512 -0.530778 1 
3.79418 15.0333 -1.35649 1 
4.53589 15.427 0 1 
3.68448 16.3047 0 1 
3.82685 17.701 -0.30477 1 
4.13386 15.2144 -0.816177 1 
3.35006 15.9161 0 1 
3.84737 15.977 -0.420148 1 
4.8279 14.5639 -0.580081 1 
2.53988 15.5653 0 1 
0.272723 14.694 0 1 
0.434291 14.9722 0 1 
4.53138 16.8083 0 1 
4.46005 17.8299 -0.141849 1 
1.32494 13.7398 -0.698692 1 
2.97586 15.7196 -0.908368 1 
2.84836 17.2336 -0.291703 1 
4.0082 16.9992 0 1 
2.77311 13.8229 -1.8895 1 
3.71161 14.3222 -1.12548 1 
3.84372 16.0602 -0.43628 1 
2.61551 15.7723 0 1 
1.32155 13.7595 -1.02162 1 
3.55891 13.7653 0 1 
2.09062 12.797 -0.273919 1 
4.8279 17.6145 -0.0631682 1 
2.13713 13.775 0 1 
4.34272 17.27 0 1 
3.92667 14.1811 -0.547034 1 
3.93095 17.5191 -0.536445 1 
3.31358 14.5825 -1.92903 1 
2.75462 16.3696 -0.739131 1 
4.28354 17.8065 -0.158268 1 
4.16528 15.5833 -0.509088 1 
3.31046 16.5316 0 1 
1.3285 13.4544 -0.385317 1 
3.09982 15.0797 -1.5803 1 
0.795673 15.2914 0 1 
0 14.7905 -0.424165 1 
3.36219 14.4311 0 1 
3.32426 16.2366 0 1 
0.766177 15.0542 0 1 
3.98711 17.7434 -0.381141 1 
2.73129 15.6741 -0.937174 1 
0.519148 15.1512 0 1 
3.53924 15.9838 0 1 
3.26992 14.2931 -1.2904 1 
3.00323 16.5107 -0.714244 1 
3.39514 14.2301 -1.6959 1 
4.28467 15.8844 -0.264504 1 
2.10917 15.9265 0 1 
2.85608 13.4655 -0.269855 1 
4.8279 17.3161 -0.0510049 1 
1.72841 12.6751 -1.7829 1 
3.82303 16.6652 -0.551692 1 
0 14.7244 -1.09732 1 
3.06805 13.7048 -1.20758 1 
3.3066 16.9147 -0.64302 1 
4.8279 15.491 -0.00189496 1 
3.47874 17.5791 -0.114429 1 
2.17106 16.182 -0.772217 1 
4.77641 13.7729 0 1 
2.22338 16.3143 0 1 
3.40149 14.2932 -1.69606 1 
3.31269 15.1309 -1.28977 1 
4.70575 14.3749 -0.826362 1 
3.86188 16.1244 -0.440049 1 
2.91208 14.0568 0 1 
3.79698 14.2965 0 1 
1.3285 13.1802 -1.91871 1 
0.318118 15.375 -1.40445 1 
2.42536 16.8328 -0.657467 1 
1.30897 13.8743 -0.439816 1 
4.02828 14.6413 0 1 
4.44338 14.704 0 1 
4.65048 17.7848 0 1 
2.40882 12.9325 -0.779713 1 
0.707128 15.5349 -0.282608 1 
3.74432 15.1767 -1.03017 1 
4.8279 15.0206 -0.296705 1 
1.3285 13.2946 -0.919455 1 
0.55858 15.3356 -1.74847 1 
2.27178 16.1385 -0.779877 1 
1.02478 14.6705 0 1 
1.8497 12.7879 -0.554205 1 
1.3285 13.024 -1.29068 1 
2.46154 13.278 -1.83775 1 
2.24821 15.3976 0 1 
0.670225 14.7541 0 1 
2.94692 16.8085 -0.661756 1 
2.05042 12.7997 -0.0790578 1 
0 15.1606 -1.4189 1 
3.67879 15.7255 -0.454371 1 
3.57543 17.6173 -0.159183 1 
3.63713 16.7183 -0.651314 1 
2.56135 15.5041 -1.10767 1 
4.10591 15.1567 0 1 
3.93356 14.0528 -0.521131 1 
2.31125 15.8654 -0.838719 1 
1.3285 13.583 -1.17656 1 
1.60679 13.7112 0 1 
0.712594 15.3606 -1.51322 1 
1.5332 15.055 0 1 
2.15903 12.643 -1.9981 1 
2.685 16.0151 0 1 
0.0439072 15.4358 -0.0271216 1 
4.77802 14.8093 -0.945619 1 
1.93065 12.7754 -0.791911 1 
4.17489 16.8411 -0.46047 1 
2.03621 15.3952 -1.32714 1 
2.77294 13.9924 -1.92005 1 
3.6612 16.9785 -0.631775 1 
4.07297 14.1172 -0.472504 1 
1.7879 13.9225 0 1 
2.1302 12.7836 -0.645439 1 
1.34009 13.4525 0 1 
3.10105 13.9997 -1.21201 1 
3.41914 16.1193 0 1 
3.67074 17.1824 0 1 
3.55321 14.8238 -1.56413 1 
0 14.8213 -1.53584 1 
2.00149 15.876 -0.834785 1 
1.84807 12.7998 -0.0446337 1 
2.59253 13.2693 -2.05149 1 
3.27907 16.3514 0 1 
2.65344 13.7921 0 1 
1.81899 13.2133 0 1 
2.4279 13.1413 -1.06031 1 
0.0343509 14.6732 -0.587794 1 
4.77774 17.4339 -0.479037 1 
3.97103 15.1854 -0.980669 1 
3.50383 14.329 -1.54197 1 
2.40996 12.9615 -0.0459132 1 
4.17289 16.1495 0 1 
2.43835 13.3288 -1.38366 1 
3.00741 15.3835 -1.36969 1 
2.84596 13.6802 -1.63395 1 
2.88871 15.1459 -1.7785 1 
3.65349 17.3713 0 1 
1.78931 12.7876 -0.562333 1 
2.53782 16.4743 -0.72068 1 
4.8279 15.1359 -0.941396 1 
0.876468 14.4366 -1.56229 1 
0.03505 14.6375 -1.17979 1 
3.08574 14.1938 -1.8536 1 
4.27773 15.0698 -1.08719 1 
2.86815 13.3873 -1.49077 1 
4.69729 15.4742 -0.571236 1 
1.0639 14.3332 -0.89052 1 
1.4487 12.8384 -0.2907 1 
4.63937 16.9632 0 1 
4.8279 13.8165 -0.266495 1 
1.57093 15.9812 -0.546328 1 
3.61711 14.2565 0 1 
2.92027 16.8624 0 1 
3.78133 14.068 -0.60296 1 
2.05903 15.3559 -1.56079 1 
0 15.3495 -0.546132 1 
4.15803 15.0781 0 1 
4.05527 14.3023 0 1 
1.03347 15.1276 0 1 
4.74759 17.8477 -0.196483 1 
2.30338 13.2545 0 1 
2.92528 17.281 -0.473934 1 
2.46641 15.6832 0 1 
3.38677 15.5891 -0.605002 1 
3.265 14.1926 -1.99417 1 
2.4279 13.097 -1.79951 1 
2.17152 15.3583 0 1 
4.28548 17.2593 0 1 
4.55532 14.9336 0 1 
3.59778 15.1611 -1.1183 1 
3.19048 14.2378 -1.60391 1 
0.447582 14.668 -0.513252 1 
4.01085 17.2684 -0.580659 1 
1.3285 13.3769 -1.04825 1 
2.91261 13.601 0 1 
1.28719 13.9301 -1.03157 1 
1.54113 12.7751 -0.910126 1 
4.67758 15.0326 0 1 
2.9466 13.541 -1.38554 1 
1.94726 16.3639 -0.233249 1 
0.228521 15.132 0 1 
3.86571 14.5087 -1.20838 1 
0.908908 15.5827 0 1 
2.71311 16.237 0 1 
4.58275 16.9132 0 1 
2.74958 13.3335 -1.78328 1 
2.32273 12.688 -2.04496 1 
1.09405 15.5177 -1.08939 1 
4.10497 17.1835 0 1 
4.17137 14.386 -0.763122 1 
3.03861 16.8282 0 1 
0.251749 15.431 -0.725055 1 
2.14247 16.5897 -0.408231 1 
3.78282 13.6425 0 1 
3.01517 14.2055 -1.37928 1 
0 14.8032 -0.745865 1 
1.59872 12.7984 -0.201218 1 
1.12168 14.2812 -0.558902 1 
3.29755 13.511 -0.626018 1 
3.76621 13.979 0 1 
4.8279 17.5443 -0.0729882 1 
0.821262 14.5536 -0.123631 1 
4.8279 16.8397 -0.054499 1 
1.39302 14.4014 0 1 
2.91258 16.7704 -0.668471 1 
2.84366 13.4584 -0.4612 1 
3.00007 16.5623 -0.705159 1 
2.4279 13.0997 -0.90233 1 
2.4279 13.1998 -0.347373 1 
4.34925 16.8962 -0.429476 1 
0 14.8936 -1.58265 1 
1.51472 12.878 0 1 
3.4114 15.1741 -1.06237 1 
3.84238 16.2572 -0.471521 1 
4.81933 13.9825 0 1 
2.30295 15.5064 -1.10374 1 
3.24779 16.9908 -0.629607 1 
1.3285 13.0334 -1.49525 1 
4.32961 17.0212 -0.455398 1 
3.22252 15.5157 0 1 
0 15.1887 -0.838614 1 
3.07673 17.1717 0 1 
4.73952 16.1526 0 1 
0.0466967 15.423 -0.628894 1 
0.120821 15.4284 -0.549889 1 
2.57799 13.4148 -0.512872 1 
1.49543 15.3404 -1.70583 1 
0.635499 15.4679 0 1 
3.65292 15.8452 0 1 
3.13485 16.5861 -0.700954 1 
3.85641 16.8542 -0.570718 1 
3.58061 14.0207 0 1 
3.95928 16.6695 -0.497965 1 
3.92471 13.9621 -0.509358 1 
3.42505 16.5194 0 1 
1.90071 12.6296 -2.08066 1 
3.50491 15.1903 0 1 
3.58568 15.1822 -0.999208 1 
3.73468 15.7518 0 1 
2.40432 12.9305 -0.650415 1 
4.8279 14.7548 -0.00849645 1 
3.11018 15.9729 0 1 
3.2222 15.5335 -0.791869 1 
4.58144 13.9904 0 1 
1.3285 13.4253 -1.65309 1 
1.74583 12.7949 -0.357518 1 
3.51882 15.1484 -1.19048 1 
3.6739 17.653 -0.183162 1 
3.22819 13.803 0 1 
0.110224 15.1524 0 1 
3.49787 13.85 0 1 
3.28728 15.9881 0 1 
0.916522 15.6077 -0.20378 1 
2.70753 13.3615 -1.50287 1 
2.82448 16.5787 -0.702262 1 
4.68102 16.6031 -0.336438 1 
1.54323 12.9983 0 1 
4.8279 15.5907 -0.392952 1 
0 14.9195 -0.364937 1 
3.87865 13.5776 -0.164143 1 
2.90522 14.2132 -1.74361 1 
2.4279 13.1579 -1.06409 1 
4.8279 17.5237 -0.0528327 1 
3.29473 14.063 -0.986406 1 
0.99916 14.3482 -1.48684 1 
1.61394 12.7806 -0.702292 1 
3.76252 15.147 -1.19813 1 
1.5964 15.3277 -1.81727 1 
3.87595 17.0402 -0.595629 1 
4.68817 16.7539 0 1 
2.40063 15.7084 0 1 
4.08454 15.2088 -0.848026 1 
4.63393 17.6618 0 1 
4.42496 14.2583 -0.395748 1 
3.05867 15.1427 -1.46841 1 
1.12844 14.256 -0.877527 1 
4.18664 15.2415 -0.662296 1 
4.46747 14.432 -0.502334 1 
4.48358 17.1499 0 1 
1.08505 15.4213 -1.25478 1 
1.3285 13.1999 -0.46493 1 
0.827224 15.4636 0 1 
2.37077 12.8616 -0.95957 1 
1.24115 14.055 -1.01154 1 
1.29621 13.8768 -1.24119 1 
0.707259 14.7221 0 1 
1.67468 12.6587 -1.89612 1 
1.3219 13.8214 0 1 
0.213502 14.5915 -1.65437 1 
3.06914 15.8948 -0.828754 1 
3.35821 15.1219 -1.34077 1 
1.90986 16.3139 -0.504144 1 
2.58476 13.3755 -1.15917 1 
4.03962 13.8573 0 1 
4.19912 16.0818 0 1 
4.06763 15.951 -0.334387 1 
0.998656 14.3555 -1.41981 1 
3.59667 16.2464 -0.589809 1 
4.62959 17.7453 -0.49657 1 
4.8279 17.6562 -0.308945 1 
3.85163 16.0888 -0.438028 1 
0.290282 15.4147 -1.07236 1 
0.163474 15.394 -1.19809 1 
3.49194 15.7587 0 1 
1.90096 15.3323 -1.77695 1 
0.806871 14.5606 -0.245569 1 
4.79239 14.3918 -0.730536 1 
2.16445 12.7998 -0.0604222 1 
3.95961 14.6317 0 1 
2.90624 13.4802 0 1 
4.09597 17.2306 0 1 
1.32494 13.6852 -1.40756 1 
3.38092 14.451 0 1 
4.34902 15.5846 -0.502097 1 
1.26167 14.0313 -0.540387 1 
4.70725 16.852 0 1 
1.42745 15.3655 0 1 
4.8279 15.0686 -0.212727 1 
1.06399 14.3602 -0.125316 1 
2.88014 14.9946 -2.06292 1 
3.50461 16.2001 0 1 
3.88919 13.7281 0 1 
1.46403 14.8295 0 1 
2.65185 14.335 0 1 
2.40967 12.7956 -2.05954 1 
0.11051 15.435 -0.281212 1 
3.69171 17.6601 -0.0420363 1 
1.15345 14.2029 -1.14929 1 
2.98024 14.087 -1.41875 1 
1.81716 15.432 -1.23181 1 
2.61042 17.0559 -0.230914 1 
2.21678 12.6991 -1.66358 1 
0.101531 15.3993 -1.08171 1 
3.14973 15.2588 -1.36023 1 
3.10205 17.1572 -0.60026 1 
4.79027 16.8367 -0.373579 1 
4.24466 17.5966 -0.522781 1 
2.53907 13.2499 -2.11827 1 
3.92109 15.6274 0 1 
4.8279 15.3671 -0.353001 1 
4.48737 15.5294 -0.604818 1 
3.14026 14.2571 -1.49433 1 
0.4239 14.5921 -1.60563 1 
1.21369 14.1837 0 1 
2.11962 16.5615 -0.460271 1 
3.80381 16.6393 0 1 
2.70733 15.9098 -0.825206 1 
1.21247 15.7362 -0.625975 1 
0.946561 15.6111 -0.582415 1 
0.310482 14.7788 0 1 
2.63695 16.2126 0 1 
2.95192 15.3615 -1.50446 1 
3.24075 13.5715 0 1 
3.09428 13.4985 -0.257005 1 
4.59145 13.7294 0 1 
0.476763 15.3772 -1.40259 1 
3.12126 17.4022 -0.340692 1 
2.02291 13.3073 0 1 
2.90573 15.0079 -1.98754 1 
2.79446 16.7215 0 1 
3.20157 14.0588 -1.09052 1 
2.2677 12.7252 -1.53786 1 
4.8279 14.7696 -0.17603 1 
4.18512 16.8896 -0.466163 1 
0.160808 14.6016 -1.56276 1 
2.78774 15.1697 -2.05814 1 
3.82878 16.9206 0 1 
3.27033 15.4778 -1.10763 1 
3.77669 15.5329 -0.795263 1 
0 15.1282 -1.04149 1 
3.61564 14.2017 -0.732275 1 
0.8913 14.5108 -0.0969173 1 
2.50825 14.1716 0 1 
1.82786 13.3357 0 1 
4.5731 15.5913 -0.464162 1 
1.08184 15.6703 -0.590343 1 
2.33411 15.8668 0 1 
2.60233 14.5838 0 1 
4.8279 14.5099 -0.342215 1 
3.38583 17.301 0 1 
1.51313 12.7268 -1.48475 1 
2.42983 16.8942 -0.402323 1 
1.77011 14.2534 0 1 
3.91167 16.3415 0 1 
1.91224 15.3156 -1.91633 1 
3.55304 14.2802 -1.36343 1 
1.09198 15.3538 -1.58011 1 
0.454264 15.4767 -0.012017 1 
2.06243 12.74 -1.23708 1 
1.88942 12.712 -1.49794 1 
4.09662 13.9688 0 1 
3.67538 15.5625 -0.627304 1 
4.21032 13.5974 -0.111917 1 
2.95074 13.4395 -1.35969 1 
3.43714 13.5269 -0.607795 1 
4.8279 16.8252 -0.0658338 1 
0.915174 14.4924 -0.161847 1 
4.19985 13.5958 -0.205821 1 
2.79215 15.3152 -1.91895 1 
4.81936 15.6046 -0.388625 1 
3.62271 15.8673 0 1 
3.71436 17.6652 -0.317525 1 
3.18756 14.1721 -1.97655 1 
4.8279 14.2222 -0.152797 1 
2.87742 15.1612 0 1 
2.26604 13.3377 0 1 
1.0681 14.351 -0.386102 1 
2.13755 14.4002 0 1 
2.41875 12.995 -0.508681 1 
0.750367 14.8227 0 1 
1.32021 13.806 -0.113261 1 
4.8279 14.4672 -0.133429 1 
3.7225 17.1201 0 1 
3.22011 13.5929 -0.986747 1 
2.17758 15.1026 0 1 
4.38316 14.3968 -0.429127 1 
4.5141 14.3817 -0.900047 1 
3.90016 17.0659 -0.590995 1 
0.345108 15.408 -1.25524 1 
1.12632 15.6901 -0.646341 1 
2.78437 15.0437 -2.04644 1 
4.5397 14.4214 -0.562324 1 
2.00181 16.4273 -0.278526 1 
2.86738 15.0663 -1.8151 1 
3.65252 15.9486 -0.506936 1 
0.947188 15.5982 -0.865504 1 
1.3285 13.138 -1.94239 1 
0.457654 14.5924 -1.56016 1 
2.90272 14.3589 0 1 
0.479038 14.6491 -0.825671 1 
1.3285 13.0224 -1.1593 1 
2.48536 16.4848 -0.718835 1 
0 14.8043 -1.20459 1 
2.12414 12.7405 -1.23227 1 
3.87276 17.7169 -0.00442572 1 
1.68197 15.867 -0.837399 1 
2.4279 12.9545 -1.63882 1 
3.76844 17.6764 -0.508715 1 
3.27851 15.5094 -0.928557 1 
3.65282 13.7063 0 1 
4.75934 15.615 -0.32953 1 
4.8279 15.0806 -0.97305 1 
2.18668 12.8014 -0.0759246 1 
2.4279 13.2296 -0.947217 1 
2.4279 13.0953 -1.37334 1 
3.73399 15.2086 -0.849263 1 
0.773298 15.4076 0 1 
2.53137 13.3589 -1.24429 1 
3.4333 14.7086 -1.71463 1 
1.0121 15.6485 -0.152417 1 
3.73404 16.0469 -0.483229 1 
1.28079 13.9596 -0.893348 1 
2.4279 12.9655 -1.53839 1 
2.23947 12.7942 -0.677024 1 
2.1538 15.964 -0.811779 1 
2.71714 13.3139 -1.88779 1 
1.48557 13.905 0 1 
3.39562 13.5575 -0.796612 1 
4.72896 14.7483 -0.937113 1 
3.97064 16.5689 0 1 
3.69861 13.5597 -0.376409 1 
0.257901 15.437 -0.601933 1 
2.11008 13.9728 0 1 
1.86737 14.7245 0 1 
3.45364 14.4677 0 1 
3.68363 16.6472 0 1 
3.53538 16.9375 -0.639006 1 
3.55661 13.8208 -0.70824 1 
4.01442 15.5864 0 1 
2.3432 15.9758 0 1 
1.34634 12.8442 -1.72911 1 
0 14.7656 -0.7532 1 
2.84712 13.6224 -1.62076 1 
3.39128 13.5391 -0.797593 1 
0.565443 14.9373 0 1 
3.52324 13.7443 -0.720899 1 
3.28151 13.8532 -0.963484 1 
3.72419 15.1387 -1.24561 1 
4.08613 17.5404 -0.532693 1 
0 14.8596 -1.59935 1 
3.33487 14.445 0 1 
4.19841 16.7913 -0.444903 1 
2.59201 13.3263 -1.64011 1 
1.19273 14.1294 -1.26421 1 
4.79242 15.2246 -0.758157 1 
3.27166 14.9237 -2.1018 1 
2.06021 12.6507 -1.94889 1 
1.33197 12.9897 -1.05557 1 
2.19619 12.7917 -0.549172 1 
3.11266 13.5013 -0.235303 1 
2.98836 13.6674 -1.33072 1 
3.90132 14.3897 -0.74237 1 
3.76401 16.8459 -0.610412 1 
0.707307 15.464 -1.17012 1 
3.04766 15.2677 -1.50748 1 
2.28017 16.7413 -0.527081 1 
0 14.8891 -1.37379 1 
3.14675 17.3989 0 1 
3.57632 14.0801 0 1 
2.63194 13.3337 -1.63437 1 
3.68534 15.6024 -0.429355 1 
2.52445 13.5777 0 1 
1.3321 12.9424 -1.52371 1 
4.01337 13.5817 -0.394029 1 
1.4519 15.344 -1.67299 1 
0.349323 14.6383 -1.15648 1 
3.78896 13.6928 -0.53225 1 
4.6195 17.156 0 1 
4.73232 15.4117 0 1 
0.936581 14.4709 -0.439867 1 
1.4829 13.5577 0 1 
1.37898 12.7976 -1.67811 1 
4.36219 16.083 0 1 
4.2371 16.103 0 1 
1.24076 14.0013 -1.59848 1 
1.67555 16.0181 0 1 
4.67493 17.1619 0 1 
1.30392 13.8958 -0.395387 1 
3.2576 13.5208 -0.0590189 1 
0.803132 15.3471 -1.64461 1 
3.37402 13.9769 0 1 
4.35005 16.1998 0 1 
2.91709 13.4643 -0.584133 1 
0.000600627 15.0034 0 1 
3.70782 14.183 0 1 
4.60491 14.0225 -0.327141 1 
3.01028 15.914 -0.824181 1 
4.76967 13.9148 -0.297127 1 
2.4279 13.1943 -1.12954 1 
2.3436 12.8504 -0.621692 1 
1.49493 12.8064 -0.514439 1 
3.37976 14.4527 -1.76437 1 
1.98344 16.0171 -0.80129 1 
1.33534 12.9287 -1.50046 1 
2.37252 15.5515 -1.04877 1 
3.06398 15.564 -0.866101 1 
3.29951 17.1623 -0.599357 1 
4.8279 16.7869 -0.303968 1 
4.61096 15.6985 -0.181831 1 
4.20397 14.4058 -0.651478 1 
4.8279 17.4724 -0.123756 1 
1.93128 14.2757 0 1 
2.37294 12.7272 -2.10744 1 
4.1072 13.803 -0.404567 1 
3.21581 15.1172 -1.36775 1 
4.05702 15.5548 -0.671029 1 
3.63525 16.2762 -0.573892 1 
0.53217 14.7266 0 1 
4.16482 15.5603 -0.63973 1 
1.39662 13.945 0 1 
3.46306 15.8818 0 1 
3.36812 14.2979 -1.75965 1 
0.353766 15.294 0 1 
4.36329 13.6039 -0.0256086 1 
4.8279 14.4869 -0.475164 1 
3.12307 13.4827 -0.770312 1 
0.423391 15.4706 -0.16622 1 
3.11037 16.521 0 1 
1.40753 14.8511 0 1 
2.04187 12.7873 -0.567715 1 
1.22658 15.1224 0 1 
4.07668 17.7643 -0.383456 1 
1.77235 16.1711 -0.155175 1 
2.38702 12.9119 -0.495837 1 
1.32934 12.9716 -1.38831 1 
2.4279 13.1503 -0.529472 1 
4.65756 15.4849 0 1 
2.53656 16.994 -0.207786 1 
4.03992 15.617 0 1 
3.50414 14.3557 -0.935326 1 
3.73996 17.0695 -0.615719 1 
2.99142 17.3267 -0.28829 1 
3.84772 13.6229 -0.488179 1 
3.27883 16.7545 -0.671281 1 
3.50013 13.7964 -0.748681 1 
1.33048 12.9847 -1.19985 1 
2.84474 15.1643 -1.88832 1 
2.02082 16.1269 0 1 
4.69597 13.7963 -0.279563 1 
0.139395 14.5842 -1.71705 1 
2.4279 13.3527 -0.911087 1 
2.75427 13.6552 -1.93819 1 
3.16948 14.1881 -1.88549 1 
4.65448 17.6942 0 1 
4.8279 17.4644 -0.301342 1 
2.61303 16.1401 0 1 
1.74643 13.32 0 1 
0.546195 14.5883 -1.44963 1 
1.83191 15.9218 -0.821726 1 
0.464125 14.6723 -0.255107 1 
0.988113 14.419 -0.681481 1 
1.23242 14.0585 -1.20171 1 
2.64038 13.4336 -0.193849 1 
2.41546 12.8763 -1.70484 1 
4.21064 17.0806 -0.492692 1 
4.04906 17.1245 0 1 
1.16855 14.1933 -0.967225 1 
2.10913 16.1628 0 1 
3.24972 17.4727 -0.182659 1 
2.39025 12.8156 -1.68607 1 
3.16558 14.2221 -1.6933 1 
1.27051 15.3532 -1.5872 1 
2.02115 13.6249 0 1 
0.18316 15.3423 -1.68911 1 
1.3285 13.5034 -1.19779 1 
2.15536 13.7785 0 1 
2.5447 16.9172 0 1 
3.70176 14.8078 -1.3988 1 
0 14.685 -1.23094 1 
1.03481 14.3919 -0.153114 1 
4.0102 14.0339 0 1 
1.93552 16.3416 -0.57848 1 
4.76329 15.3214 0 1 
3.69229 15.117 -1.36841 1 
0.790603 14.5665 -0.371715 1 
4.5832 13.6091 -0.103795 1 
2.1486 12.7578 -1.03749 1 
4.28905 16.2381 -0.326058 1 
3.50929 15.9691 0 1 
4.8279 15.3991 -0.125474 1 
2.73941 16.2714 0 1 
3.47992 13.5449 -0.0276954 1 
4.25489 16.3866 -0.36 1 
4.00385 14.8524 0 1 
1.3285 13.3261 -1.83447 1 
2.568 15.487 -1.13105 1 
1.00488 14.3842 -1.01328 1 
3.35196 13.9125 -0.901527 1 
2.54154 13.4126 -0.400596 1 
3.52074 13.7871 0 1 
4.8279 17.0633 -0.222714 1 
1.32598 13.7334 -0.276232 1 
4.02717 13.9 -0.452789 1 
0.138146 15.4177 -0.813766 1 
2.38212 15.413 -1.27517 1 
0.230212 14.6503 -1.00908 1 
1.3285 13.3737 -1.24043 1 
3.17337 17.429 -0.416159 1 
4.41772 14.8502 0 1 
3.47032 16.1869 0 1 
2.11376 13.173 0 1 
3.03581 13.9981 -1.30952 1 
2.32929 12.7101 -1.93155 1 
4.57784 14.5576 -0.919932 1 
2.43793 13.3904 -0.517637 1 
1.17055 14.2101 -0.600126 1 
3.55839 13.5524 -0.0545841 1 
2.79491 16.2 0 1 
3.93665 13.5822 -0.106378 1 
3.15781 16.0166 0 1 
2.05933 16.3631 -0.740289 1 
3.48192 16.988 -0.630101 1 
4.46208 16.6128 0 1 
4.40644 15.6523 -0.199944 1 
3.62642 17.0254 0 1 
1.81841 12.7097 -1.51748 1 
1.3285 13.5179 -0.0228366 1 
2.38967 16.1669 0 1 
1.81832 15.4657 -1.16617 1 
2.4279 13.1774 -0.221505 1 
0.959624 15.6267 -0.0853259 1 
2.82739 14.1023 -1.76059 1 
2.20242 12.6699 -1.85388 1 
1.28551 13.9005 -1.44062 1 
4.64212 17.3473 -0.469887 1 
3.14682 13.942 -1.13914 1 
4.3152 16.6142 -0.386378 1 
0 15.1728 -0.320678 1 
3.99095 16.3969 -0.438445 1 
1.25616 14.0566 -0.120535 1 
4.8279 17.4088 -0.104111 1 
4.12286 15.1586 0 1 
4.38104 14.5322 -0.958577 1 
2.51526 13.4012 -0.584384 1 
1.42269 13.7694 0 1 
2.58879 17.0358 -0.358715 1 
1.84457 14.0435 0 1 
1.2474 13.952 -1.88033 1 
2.1476 13.8116 0 1 
2.33412 15.8424 0 1 
1.27024 13.9671 -1.19042 1 
0 15.2175 -0.211909 1 
1.93573 15.755 0 1 
4.09515 16.5175 0 1 
3.82287 17.7009 0 1 
3.05815 16.5764 0 1 
0.228235 15.0768 0 1 
3.48914 15.5769 0 1 
3.88439 15.1706 -1.0647 1 
1.3285 13.4889 -1.04494 1 
4.7081 13.7519 0 1 
3.15444 13.4848 -0.800087 1 
3.65248 13.7637 -0.629882 1 
2.28517 15.3128 -1.93811 1 
1.3285 13.2693 -0.424252 1 
2.08738 15.4672 -1.16268 1 
4.72946 14.8151 -0.948856 1 
1.3285 13.4349 -0.0540104 1 
2.39102 13.9836 0 1 
4.8279 16.752 -0.108669 1 
3.36937 16.2438 -0.732919 1 
2.07155 15.9486 -0.815512 1 
4.00386 17.7472 -0.38993 1 
3.10217 15.8648 0 1 
1.63675 15.695 -0.924514 1 
0 15.2193 -0.824453 1 
4.59849 13.834 0 1 
4.8279 16.7025 -0.245438 1 
2.53469 14.9037 0 1 
2.35657 13.2218 0 1 
3.01798 13.5667 -1.2618 1 
3.63999 14.8383 -1.46657 1 
4.19228 17.1538 0 1 
4.8279 16.5545 -0.0922936 1 
1.3285 13.1499 -1.50462 1 
2.23464 12.7716 -1.00546 1 
3.36974 15.1369 -1.25587 1 
3.37171 14.9504 -1.86739 1 
1.51373 15.4188 -1.26048 1 
2.26616 16.7105 0 1 
1.35852 15.8359 -0.158281 1 
4.8279 17.5426 -0.268291 1 
3.59246 15.049 -1.5563 1 
0.163414 15.2123 0 1 
1.45379 12.7881 -1.13348 1 
2.367 12.7922 -1.59882 1 
0.938603 14.4581 -0.718469 1 
4.18974 16.3407 0 1 
3.0014 13.8641 -1.34288 1 
4.8279 15.3852 -0.262303 1 
1.61208 15.1272 0 1 
2.74052 13.5173 0 1 
0 15.2135 -0.100728 1 
2.67372 15.707 0 1 
3.43466 15.4438 0 1 
3.18645 13.6331 0 1 
2.77941 13.4386 -0.697406 1 
2.04731 15.3292 -1.80358 1 
4.57894 13.6093 -0.063154 1 
2.69903 16.1329 -0.780869 1 
2.25881 12.8128 -0.285614 1 
3.50078 14.0669 -0.795847 1 
0.402489 15.3786 -1.38783 1 
2.12727 15.0259 0 1 
1.87744 13.5833 0 1 
4.43599 16.7302 -0.385038 1 
4.51132 14.3066 -0.389358 1 
3.9441 13.6351 0 1 
2.59178 13.3841 -1.06938 1 
4.02086 16.3181 0 1 
1.3285 13.4393 -1.68965 1 
0 14.897 -1.41633 1 
1.3285 13.2988 -0.291786 1 
1.86462 12.9071 0 1 
1.40644 14.3636 0 1 
1.61271 15.3683 -1.45078 1 
3.12951 17.3992 0 1 
1.57385 12.6632 -1.87242 1 
3.18453 15.5054 -0.951476 1 
3.92159 16.7216 0 1 
4.45867 17.2322 -0.469899 1 
4.61641 13.638 -0.258006 1 
1.97112 16.3928 -0.164408 1 
2.8347 16.2569 0 1 
0.81653 15.5716 -0.145588 1 
0.432177 14.6778 -0.20928 1 
2.72657 16.7755 0 1 
0 14.7883 -0.8452 1 
2.68696 15.7542 0 1 
1.22791 14.1191 -0.0996686 1 
0.899089 14.4809 -0.839338 1 
2.4279 13.0606 -0.345697 1 
3.82765 17.235 0 1 
1.87662 13.7632 0 1 
3.63592 14.9876 -1.49705 1 
3.22487 15.4872 -1.05467 1 
3.67836 15.1625 -1.11057 1 
1.79914 12.6407 -2.01289 1 
0.54157 15.254 0 1 
1.12386 14.2369 -1.22157 1 
4.18498 13.594 -0.268639 1 
0.588988 14.7328 0 1 
2.32646 16.0966 0 1 
1.37515 13.6618 0 1 
2.78865 14.0956 -1.87973 1 
3.90811 13.9151 0 1 
1.64194 12.8147 0 1 
3.62697 14.3564 -1.39561 1 
3.21491 15.1979 0 1 
0 14.7872 -0.379689 1 
3.58472 16.1316 0 1 
3.60219 13.8048 0 1 
4.8279 14.9512 -0.859234 1 
2.19001 15.3652 -1.47009 1 
1.66256 12.7469 -1.16474 1 
3.4867 14.1591 0 1 
2.71215 16.0497 -0.795543 1 
0.9991 15.4939 -1.12242 1 
3.64509 15.5367 -0.773657 1 
3.81291 14.6455 -1.27297 1 
4.8279 15.2575 -0.174659 1 
3.04653 13.4936 -0.178298 1 
4.57806 16.7099 -0.363422 1 
2.94796 14.1677 -2.00122 1 
2.93094 13.9092 0 1 
3.54156 16.8052 0 1 
3.82766 15.5707 -0.580801 1 
0.275174 15.4442 -0.437821 1 
1.82954 16.0036 0 1 
4.6193 15.5284 0 1 
4.7241 15.7022 0 1 
0.178667 15.4293 -0.614445 1 
2.4279 12.982 -1.3369 1 
4.34574 15.5025 -0.62822 1 
0.538447 14.5792 -1.55674 1 
3.97945 17.7418 -0.360966 1 
1.42408 15.7929 -0.867436 1 
0.670794 15.0489 0 1 
2.46963 16.8855 -0.648178 1 
0.0134457 14.6521 -0.980975 1 
2.26529 16.7335 -0.0416439 1 
1.3285 13.5351 -0.592909 1 
3.1426 16.5492 0 1 
1.08186 15.311 0 1 
0 14.7298 -0.615105 1 
2.66653 13.896 0 1 
4.81581 16.2767 -0.27432 1 
3.19701 17.446 -0.138814 1 
1.94779 12.6521 -1.94053 1 
2.55336 15.9387 -0.818087 1 
3.91648 16.1285 -0.418825 1 
1.12136 14.3823 0 1 
3.50879 14.2817 -1.35475 1 
2.68839 13.393 -1.15457 1 
0.986837 14.4307 -0.401206 1 
4.8279 15.0164 -0.477778 1 
1.26431 13.9303 -1.70509 1 
1.11761 15.6958 -0.320612 1 
4.49658 14.3621 -0.898669 1 
3.9401 15.4269 -0.755409 1 
2.70304 15.467 -1.16524 1 
4.40383 17.8195 -0.39491 1 
3.15696 13.5087 -0.0763515 1 
2.67249 15.8018 0 1 
1.38117 14.0591 0 1 
1.3285 13.3053 -1.80843 1 
1.53947 15.372 -1.42786 1 
2.72735 16.9744 -0.632496 1 
3.45792 16.6749 0 1 
0.0140677 14.5933 -1.63811 1 
3.96002 13.8494 -0.472654 1 
1.68643 12.7933 -0.413407 1 
2.34238 16.8122 0 1 
2.4252 13.0169 -0.718521 1 
2.99777 16.886 -0.648093 1 
3.57878 17.041 0 1 
1.3285 13.5322 -0.0319101 1 
4.11989 15.2086 -0.849045 1 
2.52524 13.4157 -0.00643355 1 
2.0985 12.7175 -1.45067 1 
0.150293 15.4342 -0.420109 1 
2.06351 14.4166 0 1 
0 15.2405 -1.64924 1 
2.40076 15.2181 0 1 
0.810312 14.4525 -1.77116 1 
4.78718 14.197 -0.346484 1 
4.16611 15.6398 0 1 
4.8279 15.0823 -0.073932 1 
1.562 15.5309 0 1 
0 14.8961 -0.303758 1 
4.1388 13.8003 -0.392494 1 
4.15801 15.9865 0 1 
1.3285 13.0956 -0.947125 1 
4.59532 13.6086 -0.182736 1 
3.97848 14.9522 -1.2106 1 
4.18545 15.3689 0 1 
3.23249 17.4581 -0.485975 1 
2.37289 13.9577 0 1 
4.8279 14.6068 -0.882414 1 
4.62245 15.2181 -0.795011 1 
3.31474 14.4954 0 1 
0.893353 14.7443 0 1 
2.11167 12.7977 -0.237073 1 
3.57515 15.3146 0 1 
2.53266 13.3042 -1.73598 1 
4.76675 15.2899 0 1 
0.326258 15.415 -1.13494 1 
4.8279 14.8961 -0.882929 1 
0.554216 15.4964 -0.153922 1 
2.19261 13.6182 0 1 
2.25475 15.084 0 1 
3.29894 16.9521 -0.636438 1 
1.96105 13.5714 0 1 
3.869 14.9999 -1.29241 1 
4.03222 16.8236 0 1 
4.8279 14.7521 -0.15835 1 
2.38259 16.541 -0.708919 1 
2.06761 12.7978 -0.232882 1 
3.02056 17.3451 -0.251398 1 
1.61694 15.445 -1.20316 1 
1.49476 15.9294 -0.239311 1 
3.80751 17.0066 -0.619061 1 
1.72317 15.7161 0 1 
4.8279 15.5734 -0.315143 1 
0.347781 14.6247 -1.31874 1 
0.768074 15.4237 0 1 
1.35976 14.8542 0 1 
1.48654 12.6709 -1.93993 1 
0.48581 14.6713 -0.0325661 1 
3.37526 16.3507 0 1 
3.16905 16.7075 -0.679553 1 
3.6819 14.1833 -0.684406 1 
0.0716065 15.3876 -1.22327 1 
2.61498 14.2984 0 1 
4.51864 15.1878 -0.967115 1 
1.25095 14.169 0 1 
1.84649 14.0997 0 1 
1.91598 16.328 -0.171273 1 
4.2359 16.4416 -0.374084 1 
1.81039 15.5089 -1.10021 1 
3.13976 13.4968 -0.515104 1 
9.74152e-09 15.3659 -0.882211 1 
0.0972866 15.349 -1.62611 1 
0.34423 15.0796 0 1 
4.37734 17.1331 -0.466136 1 
4.57191 15.2742 0 1 
3.2849 15.2302 -1.19626 1 
0.166103 14.5842 -1.71693 1 
4.10863 16.9202 -0.492503 1 
4.70165 17.4919 0 1 
1.19061 15.7369 -0.0497467 1 
4.65136 17.5216 0 1 
1.95397 15.8391 0 1 
2.02763 16.4594 -0.120376 1 
2.74633 15.9099 0 1 
1.96916 13.6307 0 1 
3.28915 15.1445 -1.21265 1 
2.33963 16.2567 0 1 
3.47721 15.9239 0 1 
3.98068 17.1276 0 1 
3.25144 14.3162 -1.07772 1 
1.04721 14.3784 -0.155435 1 
1.71314 14.4676 0 1 
4.8279 15.0217 -0.694455 1 
2.28307 16.2749 -0.755838 1 
2.71457 16.9633 0 1 
0.0555311 14.5974 -1.60113 1 
0.0244341 14.6322 -1.24426 1 
3.59107 15.1296 -1.2973 1 
1.53776 15.3994 -1.31379 1 
2.85572 13.7164 0 1 
4.8279 15.8481 -0.110898 1 
4.26825 16.5041 0 1 
1.74547 12.7318 -1.3185 1 
2.53676 15.4287 -1.23617 1 
3.02665 15.3603 -1.51586 1 
0.811143 15.4613 -1.17492 1 
0.238203 15.3366 0 1 
2.81326 13.4132 -1.14402 1 
4.32965 16.4127 0 1 
2.693 16.6703 0 1 
2.4279 12.946 -1.99231 1 
1.3285 13.6411 -0.814615 1 
4.8279 17.0169 -0.309037 1 
3.15464 13.7613 0 1 
2.71643 17.0758 0 1 
0 14.7222 -0.657348 1 
4.54539 17.4083 -0.489711 1 
0.498964 14.6154 -1.25631 1 
3.91098 17.4097 -0.555741 1 
2.44647 15.3321 -1.77843 1 
0.418024 14.6803 -0.0893489 1 
2.27278 12.8087 -0.506725 1 
1.71647 16.113 -0.387501 1 
2.75111 16.6095 0 1 
0.337144 15.4555 -0.294049 1 
2.92004 17.281 -0.31746 1 
3.49151 13.5626 -0.714396 1 
3.62112 16.8161 0 1 
1.47751 15.9009 -0.751032 1 
1.13664 15.6969 -0.612896 1 
3.89052 16.5932 0 1 
0.555901 14.828 0 1 
4.32003 16.8962 0 1 
1.77632 14.0136 0 1 
1.30941 13.7993 -1.48725 1 
4.17384 13.7952 -0.379853 1 
1.90837 12.7509 -1.11942 1 
1.09796 15.6785 -0.574155 1 
1.91741 13.8952 0 1 
1.22095 14.7811 0 1 
2.9688 15.356 -1.55944 1 
2.88269 16.8044 -0.662477 1 
4.28279 13.6007 -0.083357 1 
2.0822 16.5086 -0.713862 1 
3.50602 17.2547 0 1 
0.999308 14.4248 -0.0660247 1 
2.41692 12.9914 -0.339045 1 
3.3038 14.1223 0 1 
3.1038 15.2899 0 1 
1.092 15.3335 -1.76618 1 
1.40831 14.2788 0 1 
3.3071 15.8756 -0.712768 1 
2.79818 13.3535 -1.68753 1 
1.40703 12.8505 -0.702071 1 
1.3285 13.5215 -1.7727 1 
4.8279 15.1133 -0.577674 1 
3.80532 14.7421 -1.2961 1 
3.12633 14.2852 -1.22668 1 
1.42424 15.3331 -1.77004 1 
3.7058 13.6223 0 1 
1.22764 14.9486 0 1 
3.26779 15.5406 -0.751734 1 
4.8279 16.7412 -0.304729 1 
3.75333 17.6763 -0.389785 1 
3.992 14.6015 0 1 
4.48163 14.4626 -0.921276 1 
3.77406 15.5992 -0.419065 1 
4.44115 13.6975 0 1 
3.17178 16.4165 0 1 
3.2255 17.4594 -0.262479 1 
0.363118 15.4415 -0.787406 1 
2.52945 14.7382 0 1 
0 14.7818 -0.758846 1 
4.56362 17.8335 -0.471518 1 
4.8279 17.0417 -0.351811 1 
2.4279 13.2184 -1.88395 1 
4.17704 15.0656 0 1 
3.14518 13.5051 -1.06423 1 
3.60307 17.4877 0 1 
2.89142 13.769 -1.54014 1 
4.68194 14.9728 0 1 
2.0122 13.2433 0 1 
4.05834 16.6072 -0.45307 1 
4.37837 17.082 0 1 
2.59794 17.042 -0.422422 1 
4.5873 17.6543 -0.512612 1 
3.19376 15.736 -0.778465 1 
2.30237 16.3186 -0.748121 1 
3.82988 16.1817 0 1 
3.43301 13.5389 -0.19219 1 
3.70856 15.9926 0 1 
2.67309 17.1024 -0.424261 1 
4.38362 15.725 0 1 
2.93245 15.113 -1.6805 1 
3.28268 15.1178 -1.36395 1 
2.73503 13.6175 -2.02988 1 
2.00404 16.4212 -0.603468 1 
1.41828 15.8575 -0.770249 1 
1.87862 14.3743 0 1 
2.36882 12.885 -0.496159 1 
4.8279 14.8521 -0.392803 1 
3.31965 15.4787 -1.10301 1 
1.9905 16.4144 -0.249095 1 
4.82386 14.2545 0 1 
3.4167 16.8644 -0.651886 1 
4.72976 14.2208 -0.352022 1 
1.80869 15.3765 -1.40094 1 
4.1598 17.2239 -0.531399 1 
3.27915 13.8445 0 1 
4.44866 16.3563 -0.317246 1 
1.12279 14.2838 -0.443094 1 
1.3285 13.5909 -1.4062 1 
1.71463 15.6605 -0.946735 1 
0.652161 15.3885 -1.34773 1 
1.50471 12.808 -0.415995 1 
2.82796 13.9626 -1.73438 1 
2.24567 12.812 -0.181276 1 
2.33422 16.4956 -0.716923 1 
2.4279 13.2353 -0.193319 1 
3.63439 17.6327 -0.503446 1 
4.40786 14.8249 -1.00314 1 
2.93161 15.0225 -1.90434 1 
3.87281 14.3753 -0.824182 1 
3.80189 16.4206 -0.517809 1 
0.639109 14.6646 0 1 
3.68366 17.2206 0 1 
0.981773 14.4347 -0.42336 1 
0.385054 15.3081 0 1 
1.69697 13.6695 0 1 
2.59202 16.8698 -0.650949 1 
3.82351 17.6735 0 1 
1.44485 15.5185 0 1 
1.91479 14.3929 0 1 
3.24931 15.3552 0 1 
4.53089 13.8348 -0.302917 1 
1.27454 13.9917 -0.626848 1 
2.5315 13.2753 -1.94356 1 
3.38161 14.2229 -1.68814 1 
4.0486 15.5241 -0.725756 1 
0 15.2619 -1.47309 1 
3.84288 15.0146 0 1 
3.67866 14.4192 0 1 
0.886934 14.7964 0 1 
2.77111 17.0181 -0.624779 1 
2.89129 15.3518 -1.59936 1 
4.76769 14.715 0 1 
1.30433 13.8734 -0.856097 1 
0.752872 14.5848 -0.35524 1 
4.73065 17.8449 -0.359986 1 
2.75015 15.379 -1.38931 1 
2.7178 16.6281 -0.693565 1 
3.13544 15.5041 -0.958402 1 
1.00592 15.6263 0 1 
1.5893 12.8823 0 1 
0.774363 15.5347 -0.854262 1 
4.72807 14.1668 0 1 
4.11852 15.5092 -0.696721 1 
2.32359 16.2804 -0.754862 1 
2.32084 16.7819 -0.57961 1 
0 14.971 -1.64102 1 
3.66208 16.5877 0 1 
1.55297 15.8078 -0.861583 1 
2.98601 15.3346 -1.6205 1 
3.79825 14.3633 -0.891765 1 
0.00411589 14.6765 -0.496608 1 
0.65446 14.629 -0.0451338 1 
2.2629 16.3135 -0.749029 1 
2.16622 13.4964 0 1 
4.7462 16.3443 -0.287655 1 
3.59473 13.5557 -0.0545773 1 
2.68555 13.4408 -0.19716 1 
4.35819 17.75 -0.495737 1 
2.59075 13.4164 -0.525313 1 
3.5895 16.5461 0 1 
0.651686 15.0365 0 1 
3.36887 14.3207 -1.13353 1 
1.3285 13.1253 -1.21502 1 
0 14.9629 -0.833039 1 
2.34685 16.2112 -0.767074 1 
4.62613 16.4288 0 1 
4.51752 13.8227 -0.303012 1 
4.03386 14.2813 0 1 
2.50283 15.0576 0 1 
2.95317 13.4369 -1.10286 1 
2.65433 13.2772 -2.06703 1 
0.184847 15.4038 0 1 
1.09162 15.4477 -1.19661 1 
3.38158 14.7227 -1.80847 1 
2.41659 12.9507 -1.06266 1 
4.76085 15.1929 -0.937929 1 
1.36356 12.93 -0.0821446 1 
4.75894 15.7845 0 1 
4.52572 16.6935 0 1 
3.96276 16.5888 -0.482451 1 
3.47704 17.3373 0 1 
0.0731876 15.3898 -1.1963 1 
0.576117 15.4864 -0.704144 1 
4.8279 15.1539 -0.794802 1 
0.0818921 14.6774 -0.47028 1 
4.6146 16.1628 -0.263244 1 
2.02977 12.7998 -0.0490678 1 
4.1045 16.7839 -0.469631 1 
2.15958 16.6138 -0.158124 1 
3.89313 14.4226 -1.17312 1 
3.59744 13.8539 0 1 
0.607526 15.4993 -0.583142 1 
3.5319 15.2972 0 1 
3.85626 16.7322 -0.549324 1 
4.30563 16.6195 0 1 
1.75208 15.0769 0 1 
4.15645 17.5465 0 1 
3.55354 16.8857 0 1 
4.70073 17.7545 0 1 
4.3267 17.8116 -0.270296 1 
3.76753 17.3651 0 1 
2.97805 16.1291 -0.781552 1 
0.989248 14.5066 0 1 
4.60382 14.3398 0 1 
0.63376 15.4575 -1.18074 1 
2.83625 14.012 -1.71978 1 
3.99918 15.5475 -0.712486 1 
1.08701 14.2988 -1.02287 1 
2.56902 13.3608 -1.2915 1 
1.41251 12.7826 -1.46332 1 
3.1783 14.8107 0 1 
1.93406 13.9097 0 1 
1.27843 15.3328 -1.77311 1 
4.8279 14.5622 -0.189226 1 
2.98625 16.3488 0 1 
0 14.8627 -0.598605 1 
4.00862 14.5203 0 1 
4.38425 17.8213 -0.106093 1 
2.57647 16.0347 0 1 
3.73465 13.5626 -0.379005 1 
4.31351 17.7614 -0.493726 1 
3.87111 16.0434 0 1 
0.22985 14.6941 0 1 
1.3285 13.4234 -0.840619 1 
2.78958 13.3774 -1.47414 1 
1.62198 14.7765 0 1 
2.91183 15.8037 0 1 
1.10804 15.3983 -1.3174 1 
4.8279 14.1877 -0.210066 1 
2.93438 13.4192 -1.2733 1 
4.46911 16.2589 -0.297158 1 
4.09893 14.1408 0 1 
3.11396 14.193 -1.22786 1 
1.10599 14.3108 -0.265206 1 
0.97244 15.6188 0 1 
1.10381 14.661 0 1 
0 14.9086 -1.53166 1 
2.58246 13.2764 -1.99355 1 
1.84677 16.2498 -0.122247 1 
2.17648 12.6762 -1.77544 1 
2.60293 16.6816 -0.68413 1 
3.49192 13.9547 -0.783187 1 
2.04658 14.0717 0 1 
1.30231 14.8682 0 1 
2.32732 16.7857 -0.659021 1 
2.09183 16.4771 -0.720178 1 
3.01727 17.0139 0 1 
3.5341 17.5593 0 1 
1.3285 13.1141 -0.383951 1 
1.3285 13.5395 -1.92887 1 
4.58228 13.6084 -0.170872 1 
2.35343 14.1159 0 1 
0.207753 15.0612 0 1 
4.8279 14.5895 -0.597852 1 
4.13947 15.9791 0 1 
3.47817 15.9993 0 1 
2.89896 16.1883 0 1 
3.13846 13.8987 0 1 
3.94062 17.6495 0 1 
3.59198 16.5666 0 1 
4.33315 16.683 0 1 
0 15.2079 -0.420271 1 
4.51066 14.8904 0 1 
1.17259 14.2193 -0.0502019 1 
3.04663 14.9093 0 1 
3.42358 13.5392 -0.0428025 1 
4.68832 15.2377 -0.684045 1 
1.73793 14.9676 0 1 
2.51612 15.4266 0 1 
1.91545 15.3876 -1.35273 1 
0.572463 15.4987 -0.297545 1 
2.07149 16.5082 -0.325231 1 
0.440178 14.5767 -1.72208 1 
4.47552 17.3071 0 1 
3.1068 14.1744 -1.96361 1 
1.59342 13.4908 0 1 
4.06288 16.3807 -0.411929 1 
2.84907 13.439 -1.58363 1 
3.57308 14.8179 0 1 
3.09571 15.4038 -1.30636 1 
2.63778 16.2372 -0.762489 1 
3.24454 15.107 -1.42581 1 
3.77478 14.0443 0 1 
0.656375 15.1195 0 1 
2.50002 14.1161 0 1 
1.3285 12.9669 -1.79561 1 
3.50107 14.8584 -1.63933 1 
0.52815 15.4917 -0.0461235 1 
3.92618 16.1841 -0.425021 1 
0.63614 15.5172 -0.0983485 1 
3.50043 17.5813 -0.494979 1 
1.93253 15.3502 -1.61523 1 
0.0928002 14.5918 -1.6514 1 
2.89714 16.3727 0 1 
1.67233 12.7997 -0.0815015 1 
1.40234 13.7094 0 1 
4.37756 17.3397 0 1 
1.75839 15.7556 -0.886236 1 
3.71418 15.202 -0.88674 1 
4.19579 14.8059 -1.07287 1 
2.12034 13.3902 0 1 
0.724564 14.5915 -0.567056 1 
1.87423 16.2782 -0.311239 1 
1.98271 15.6006 -1.00144 1 
4.75681 17.8464 -0.308886 1 
3.91835 16.0624 -0.406358 1 
0.231506 14.6018 -1.56025 1 
2.05224 12.6887 -1.68357 1 
2.79852 17.1962 -0.421021 1 
1.3164 13.7877 -1.10726 1 
4.20594 16.8778 0 1 
4.10223 14.2377 0 1 
3.97475 15.2154 -0.81081 1 
3.23359 13.6621 0 1 
1.3285 13.4159 -0.346366 1 
2.60447 16.7719 -0.668189 1 
4.8279 13.7004 -0.127908 1 
1.12398 15.4758 -1.15221 1 
4.04329 16.8953 0 1 
2.27019 15.7359 -0.898581 1 
4.8279 15.3758 -0.449113 1 
0.531668 14.6263 -1.04681 1 
1.76711 15.498 -1.11463 1 
2.42237 12.9223 -1.61373 1 
3.46092 17.1062 -0.60925 1 
1.10471 14.3068 -0.484423 1 
1.52151 15.7403 -0.895758 1 
2.4279 12.9885 -2.07131 1 
0.911148 14.445 -1.21885 1 
4.40395 15.6943 0 1 
3.78533 15.5357 -0.779178 1 
0.294557 15.4455 -0.461198 1 
1.89626 15.4849 -1.13505 1 
1.76391 13.3714 0 1 
3.15156 15.5448 -0.781626 1 
2.07262 15.3519 -1.59867 1 
4.12252 14.0666 0 1 
1.74607 12.7938 -0.398071 1 
4.65036 15.6625 -0.172239 1 
3.08684 15.8453 0 1 
3.94655 15.5439 -0.732546 1 
1.27624 15.6948 -0.92258 1 
2.53893 13.3223 -1.60018 1 
4.76169 16.831 -0.373148 1 
3.8667 14.4918 0 1 
1.3285 13.1102 -0.838204 1 
3.55926 13.8689 -0.714769 1 
0.743806 14.4992 -1.65617 1 
1.33501 12.9964 -0.735529 1 
1.33654 12.9176 -1.54235 1 
3.0081 17.3006 -0.574975 1 
1.32347 13.7842 -0.0325197 1 
2.72461 13.4163 -0.927279 1 
3.18368 14.1456 -2.12685 1 
4.79199 16.6075 -0.333126 1 
1.80412 15.4152 0 1 
